4.5350614,4.556485,4.582559,4.427057,4.609733,6.022638,7.8442373,9.207222,10.042953,10.391084,10.465611,10.540411,10.56584,10.568702,10.554181,10.537338,10.512459,10.494844,10.469914,10.452757,10.438804,10.435146,10.424778,10.414944,10.403792,10.395856,10.387604,10.386118,10.391737,10.403379,10.413502,10.424891,10.43219,10.440919,10.448001,10.451838,10.450327,10.446828,10.443342,10.438249,10.434422,10.430787,10.42879,10.426385,10.421255,10.408623,10.387699,10.362295,10.326521,10.291202,10.241222,10.204513,10.127061,10.065084,9.888895,9.728153,9.326272,8.959081,7.8561425,6.682532,5.5011234,4.954518,4.633724,4.725575
4.5297375,4.5357556,4.562675,4.44126,4.814561,6.9612665,9.358671,10.468028,10.718025,10.78525,10.684962,10.697061,10.699155,10.686001,10.66912,10.66003,10.6514,10.648192,10.644854,10.643859,10.649624,10.658213,10.662182,10.661736,10.663936,10.665919,10.665303,10.666188,10.671693,10.679598,10.6856785,10.691055,10.6931505,10.696856,10.701368,10.704752,10.704807,10.705561,10.706495,10.707788,10.708948,10.712006,10.716894,10.730256,10.745078,10.757352,10.766134,10.777854,10.783439,10.78222,10.770334,10.758103,10.73241,10.720352,10.647295,10.576441,10.364015,10.183222,9.196335,7.9920363,6.364153,5.249739,4.634141,4.7523456
4.5259523,4.510828,4.5378847,4.580547,5.150174,7.412413,9.759359,10.613296,10.624441,10.710611,10.694044,10.718224,10.717717,10.693267,10.672003,10.670606,10.671418,10.673511,10.6756935,10.676919,10.679331,10.681556,10.683918,10.686297,10.692616,10.698892,10.701605,10.703903,10.70964,10.716099,10.720558,10.722978,10.722418,10.722217,10.723644,10.723354,10.721322,10.719124,10.718047,10.715981,10.714318,10.7130575,10.713702,10.718939,10.725494,10.730063,10.731701,10.733977,10.7299595,10.724028,10.700658,10.669794,10.624425,10.598651,10.531944,10.476611,10.322647,10.195482,9.538316,8.726748,7.0395784,5.523322,4.6874933,4.7739983
4.522692,4.470064,4.49742,4.8573604,5.7674704,8.0345545,10.161907,10.807227,10.66267,10.738233,10.75045,10.758285,10.749152,10.734618,10.724761,10.727294,10.73195,10.7356205,10.7403345,10.743321,10.744972,10.744869,10.747766,10.752838,10.762948,10.772838,10.77874,10.782348,10.787659,10.792343,10.795485,10.795952,10.7937,10.791229,10.7908125,10.789327,10.787491,10.785254,10.783955,10.781329,10.7789955,10.776142,10.774678,10.775781,10.777624,10.776065,10.772921,10.772512,10.768049,10.762979,10.739718,10.707876,10.657041,10.618851,10.558813,10.521867,10.421546,10.342832,9.919915,9.377006,7.630495,5.810636,4.7800446,4.810088
4.52053,4.433092,4.4605536,5.136725,6.3513885,8.446141,10.229442,10.799362,10.682408,10.760121,10.772507,10.76216,10.749385,10.756085,10.763284,10.765061,10.766813,10.767519,10.7698145,10.772225,10.77379,10.774308,10.777839,10.78345,10.794138,10.804564,10.811471,10.815649,10.820457,10.824466,10.827596,10.828304,10.826286,10.824047,10.823568,10.822827,10.822196,10.821025,10.820033,10.817855,10.815719,10.812549,10.810106,10.8090925,10.807774,10.8004465,10.792078,10.789042,10.784188,10.77831,10.757832,10.734151,10.684358,10.635349,10.568619,10.533567,10.441876,10.369785,10.020408,9.570897,7.846766,5.974159,4.8721514,4.841939
4.5143523,4.393032,4.421107,5.4013963,6.915562,8.87732,10.356315,10.84377,10.725447,10.781324,10.787088,10.782189,10.778042,10.787786,10.79636,10.797414,10.797498,10.796486,10.799237,10.804,10.810606,10.816014,10.823346,10.830109,10.841674,10.852049,10.859306,10.863568,10.868039,10.871577,10.87452,10.875038,10.87285,10.870345,10.8696,10.868753,10.868278,10.866991,10.86569,10.863088,10.860585,10.856498,10.852947,10.850174,10.84697,10.837911,10.82654,10.817108,10.805754,10.795538,10.775281,10.756268,10.712257,10.665823,10.600176,10.561704,10.480034,10.422263,10.158784,9.812187,8.102548,6.158284,4.9716506,4.8768277
4.5049114,4.3591638,4.386152,5.570824,7.2851834,9.146238,10.413992,10.861079,10.756608,10.789251,10.785064,10.797559,10.806517,10.808808,10.80979,10.809892,10.809894,10.809462,10.814901,10.822983,10.835745,10.846499,10.857655,10.865022,10.876686,10.886171,10.892851,10.8967285,10.901092,10.904679,10.907643,10.908152,10.905916,10.903314,10.90254,10.901337,10.9003935,10.898355,10.8964615,10.8931055,10.890102,10.885161,10.880907,10.877354,10.873744,10.865729,10.853566,10.838235,10.81924,10.80331,10.780796,10.762565,10.725237,10.689256,10.627225,10.580483,10.499134,10.4491205,10.222691,9.919658,8.232784,6.277732,5.0494633,4.9065685
4.4916654,4.3176074,4.3397436,5.7268534,7.643387,9.413103,10.476185,10.872871,10.774346,10.796687,10.790921,10.808651,10.822127,10.82271,10.822061,10.821783,10.825026,10.82957,10.84092,10.852495,10.868374,10.879992,10.892153,10.899742,10.911522,10.920823,10.92735,10.93105,10.935276,10.938749,10.941669,10.942055,10.939645,10.936774,10.935811,10.934278,10.933071,10.930529,10.928192,10.924336,10.921034,10.915482,10.910607,10.906142,10.901697,10.892993,10.879902,10.863245,10.841537,10.821389,10.794982,10.774361,10.739213,10.709741,10.651488,10.600968,10.525792,10.487644,10.294889,10.026533,8.34554,6.3667717,5.1077695,4.939443
4.474899,4.273369,4.2879252,5.8497863,7.942799,9.633374,10.519119,10.871907,10.781211,10.802818,10.800205,10.8171,10.829821,10.8302355,10.830653,10.831602,10.839824,10.850263,10.867453,10.881457,10.898378,10.908903,10.9206,10.928042,10.939709,10.9489765,10.955376,10.958973,10.963164,10.966673,10.969673,10.97011,10.967674,10.96473,10.963722,10.962015,10.96062,10.95772,10.955074,10.950923,10.947491,10.941588,10.936318,10.931243,10.926175,10.916516,10.90288,10.887057,10.865355,10.842983,10.813416,10.789788,10.755074,10.729838,10.67604,10.625991,10.557557,10.5278845,10.356913,10.110832,8.463516,6.5042434,5.2105856,4.9841886
4.4608502,4.2323084,4.237279,5.9655714,8.227616,9.841273,10.557064,10.870572,10.790395,10.812015,10.811962,10.827263,10.838641,10.838908,10.841105,10.8446455,10.856548,10.869587,10.889034,10.90361,10.921295,10.932116,10.944014,10.9513645,10.962863,10.971908,10.978115,10.981634,10.985849,10.989524,10.992721,10.993436,10.991219,10.988525,10.987696,10.986036,10.984533,10.981413,10.978559,10.974214,10.970687,10.964475,10.958838,10.95328,10.947731,10.937417,10.923107,10.906557,10.884236,10.861299,10.831737,10.808285,10.77547,10.752633,10.703304,10.6567,10.594174,10.567916,10.423703,10.211897,8.630966,6.7196774,5.3679595,5.0351353
4.438655,4.1864605,4.1882873,6.097226,8.537725,10.063748,10.592944,10.864813,10.798786,10.822345,10.826113,10.839185,10.848708,10.849159,10.8542795,10.861911,10.877538,10.891663,10.91197,10.926557,10.94467,10.955905,10.967987,10.975231,10.986576,10.995448,11.001529,11.005072,11.009442,11.01345,11.016985,11.0181465,11.016268,11.013994,11.013488,11.012043,11.010528,11.007331,11.004376,11.00002,10.996549,10.990242,10.98442,10.978629,10.972809,10.962061,10.947234,10.929925,10.907285,10.884575,10.856209,10.83411,10.803606,10.782227,10.737462,10.696033,10.638279,10.611555,10.492071,10.316694,8.86171,7.066803,5.630949,5.113625
4.4154973,4.1477833,4.153632,6.213346,8.798406,10.247864,10.619482,10.857259,10.804306,10.828651,10.835209,10.847693,10.8566475,10.856908,10.8641815,10.875414,10.893818,10.90814,10.928985,10.943977,10.962514,10.973913,10.986058,10.9932165,11.0045185,11.013381,11.019449,11.023084,11.027642,11.031967,11.035819,11.037318,11.035629,11.033607,11.033328,11.032062,11.030569,11.027373,11.024394,11.02015,11.016849,11.010658,11.004851,10.999064,10.993187,10.982305,10.967285,10.949696,10.926913,10.904053,10.876412,10.855699,10.827216,10.806954,10.765022,10.726631,10.671222,10.643257,10.538804,10.387537,9.055404,7.38398,5.876434,5.185843
4.3849587,4.117043,4.140467,6.3271947,9.02524,10.408681,10.648063,10.8540945,10.81021,10.837247,10.84861,10.860409,10.869213,10.870753,10.881195,10.895822,10.916785,10.931233,10.952578,10.968004,10.986962,10.998522,11.010853,11.018089,11.029473,11.038404,11.044586,11.048419,11.05324,11.057929,11.062108,11.064007,11.062611,11.060983,11.061016,11.0600605,11.058698,11.055641,11.052723,11.048652,11.045526,11.03953,11.03384,11.0281925,11.022384,11.011515,10.99644,10.978723,10.955919,10.933257,10.905883,10.885029,10.857282,10.838103,10.799318,10.764598,10.710026,10.677878,10.582846,10.451883,9.28801,7.797113,6.204195,5.2860427
4.363568,4.10995,4.154545,6.383104,9.108901,10.469649,10.666512,10.858212,10.814391,10.844466,10.860075,10.871168,10.880093,10.88368,10.896711,10.912832,10.935097,10.949887,10.971696,10.987374,11.006584,11.018242,11.0308,11.038228,11.049735,11.058722,11.065032,11.069022,11.074005,11.078889,11.083215,11.085364,11.0842285,11.08294,11.083214,11.082529,11.08132,11.078434,11.075596,11.071619,11.068542,11.0626545,11.057071,11.051564,11.045857,11.03507,11.02003,11.002317,10.979554,10.957306,10.929559,10.907001,10.878357,10.859831,10.8231945,10.791096,10.73604,10.699578,10.604779,10.48094,9.443216,8.094711,6.4438753,5.359406
4.337804,4.102304,4.1704025,6.4329953,9.177747,10.521256,10.685304,10.86276,10.817252,10.852963,10.8754425,10.885748,10.895176,10.9024515,10.918868,10.935717,10.958694,10.973829,10.995979,11.011767,11.031202,11.04306,11.056004,11.063789,11.075602,11.084819,11.09148,11.0958395,11.101147,11.106357,11.110911,11.113422,11.112671,11.11187,11.112466,11.11216,11.111175,11.10858,11.105925,11.102112,11.099085,11.093324,11.087863,11.082508,11.076913,11.066214,11.051227,11.033558,11.010906,10.989413,10.960916,10.935223,10.904663,10.887064,10.853226,10.824449,10.767922,10.724711,10.632298,10.52086,9.6155,8.41366,6.711357,5.463367
4.3223624,4.096954,4.1765156,6.451073,9.200759,10.539737,10.693872,10.8642645,10.816851,10.857542,10.885577,10.895402,10.905359,10.915814,10.934495,10.950963,10.973707,10.988986,11.011158,11.026854,11.0463705,11.05843,11.071688,11.079776,11.091899,11.101387,11.108423,11.113151,11.118765,11.124256,11.1290045,11.131796,11.131337,11.130894,11.131719,11.1316805,11.130855,11.128495,11.126013,11.122337,11.119334,11.1136465,11.108243,11.102958,11.097408,11.086735,11.07177,11.054137,11.031583,11.010734,10.981554,10.953111,10.920808,10.904009,10.872118,10.845443,10.787393,10.738988,10.650433,10.550382,9.707367,8.571248,6.852811,5.5377235
4.303575,4.091792,4.1863027,6.4672136,9.21469,10.553352,10.705588,10.870795,10.821029,10.866826,10.9008255,10.911168,10.922323,10.935716,10.956434,10.97257,10.995127,11.010552,11.032787,11.048439,11.06797,11.080112,11.093713,11.102227,11.114751,11.1245575,11.131988,11.137084,11.143039,11.1488,11.153664,11.156632,11.156396,11.156258,11.157293,11.157536,11.156891,11.154838,11.152605,11.149147,11.146212,11.140677,11.135409,11.130261,11.124812,11.114272,11.099482,11.082089,11.059847,11.039645,11.010205,10.980232,10.94635,10.928765,10.897994,10.874259,10.814718,10.760124,10.67608,10.589381,9.816478,8.754271,7.021932,5.6356416
4.293294,4.090407,4.1939664,6.4699645,9.207872,10.551611,10.713051,10.878615,10.82744,10.875442,10.912235,10.9238405,10.936207,10.950589,10.97187,10.987826,11.010266,11.025736,11.048005,11.063664,11.083117,11.095178,11.108952,11.117764,11.130545,11.140535,11.148152,11.153404,11.159534,11.165394,11.170223,11.173153,11.17294,11.172872,11.173973,11.174337,11.173785,11.17193,11.169884,11.166598,11.1637335,11.158346,11.153207,11.148177,11.142821,11.132441,11.117867,11.100774,11.078873,11.05895,11.029813,11.000378,10.965982,10.946523,10.915395,10.893671,10.833581,10.775535,10.694172,10.615027,9.876142,8.849457,7.115187,5.6993775
4.2874427,4.0937877,4.205834,6.4713016,9.194398,10.545283,10.721756,10.89172,10.840928,10.889762,10.927872,10.941758,10.956189,10.971184,10.9925785,11.008233,11.0303755,11.045753,11.067873,11.083421,11.1027,11.114667,11.128624,11.137767,11.150802,11.16095,11.168742,11.174129,11.180414,11.186314,11.191019,11.193819,11.193601,11.193571,11.194709,11.195153,11.194662,11.1930275,11.191232,11.188172,11.185394,11.180172,11.175162,11.170249,11.164968,11.154688,11.140274,11.1234455,11.101882,11.082228,11.053488,11.024816,10.990039,10.9685335,10.937186,10.917792,10.85824,10.797901,10.720589,10.650041,9.957101,8.978937,7.236593,5.7751474
4.291189,4.1016726,4.2165,6.469846,9.17956,10.536401,10.7269945,10.903346,10.854407,10.90216,10.939333,10.955407,10.97167,10.986425,11.007305,11.0227165,11.044537,11.059706,11.081545,11.0969095,11.115968,11.127827,11.141823,11.151112,11.164217,11.174381,11.182193,11.187575,11.193878,11.199701,11.204216,11.206817,11.206524,11.206433,11.207535,11.207953,11.207443,11.205932,11.204328,11.20146,11.198777,11.193698,11.188787,11.1839695,11.178744,11.168513,11.15418,11.137512,11.116185,11.0966625,11.068368,11.040633,11.006018,10.98324,10.951802,10.93382,10.875804,10.815858,10.741899,10.676201,10.014145,9.068953,7.3188014,5.824161
4.2999825,4.113998,4.231126,6.473047,9.170021,10.5311575,10.733462,10.914703,10.86719,10.914427,10.951432,10.969706,10.987863,11.002646,11.023243,11.03846,11.059907,11.074756,11.096151,11.111211,11.129898,11.141549,11.155408,11.164692,11.177727,11.187813,11.195535,11.200822,11.207061,11.2127285,11.216986,11.219303,11.218864,11.218643,11.219671,11.220011,11.219436,11.218057,11.2167015,11.214164,11.21172,11.206972,11.202307,11.197768,11.19275,11.182751,11.168676,11.152359,11.131488,11.112323,11.08473,11.058077,11.024003,11.000442,10.969493,10.953175,10.897334,10.838323,10.76952,10.710855,10.090565,9.189629,7.429544,5.8908753
4.3151684,4.1295886,4.2464433,6.482028,9.172256,10.53307,10.73892,10.92246,10.87636,10.923238,10.960138,10.979797,10.999174,11.014014,11.034484,11.049629,11.070809,11.085357,11.106332,11.121092,11.139414,11.150843,11.164447,11.173567,11.186373,11.196259,11.203756,11.208836,11.214903,11.220339,11.224315,11.226335,11.225728,11.225353,11.226301,11.226552,11.225908,11.224641,11.22351,11.2213125,11.21915,11.214767,11.210372,11.206157,11.201394,11.191699,11.177957,11.162048,11.141705,11.122987,11.096166,11.070508,11.037227,11.013529,10.983344,10.968275,10.914792,10.857585,10.792555,10.738098,10.152485,9.289604,7.522369,5.947897
4.3339777,4.148401,4.265287,6.4989386,9.186188,10.542812,10.746102,10.930908,10.887077,10.933544,10.970145,10.990849,11.011223,11.026196,11.046657,11.061772,11.082784,11.09713,11.117814,11.132361,11.1503935,11.161619,11.175012,11.183988,11.196531,11.206141,11.213342,11.218142,11.22397,11.229116,11.2327585,11.23446,11.233696,11.233214,11.234125,11.234368,11.233722,11.232638,11.231767,11.229927,11.22803,11.223989,11.219832,11.215903,11.211376,11.201981,11.188596,11.173144,11.15339,11.135184,11.109194,11.0845785,11.052036,11.028039,10.998537,10.98482,10.933775,10.878498,10.814871,10.761366,10.21241,9.392718,7.620483,6.0095997
4.3611007,4.173179,4.287628,6.5199566,9.205759,10.555603,10.752966,10.93848,10.897468,10.943552,10.979688,11.001074,11.022102,11.037117,11.057538,11.072643,11.093528,11.107714,11.128132,11.14246,11.160226,11.17128,11.184451,11.193235,11.205438,11.214697,11.221546,11.22602,11.231559,11.236364,11.239642,11.2410145,11.2401085,11.239544,11.24043,11.240692,11.240069,11.239187,11.238572,11.237065,11.235402,11.23166,11.227718,11.22404,11.219734,11.210651,11.197675,11.182758,11.16371,11.1461315,11.1211195,11.097732,11.065904,11.041313,11.012299,11.000007,10.951645,10.898727,10.834637,10.779,10.259255,9.476493,7.703258,6.065878
4.391413,4.199229,4.308591,6.5365996,9.219556,10.564053,10.75806,10.944951,10.906673,10.952453,10.988167,11.010348,11.03202,11.046908,11.067115,11.082148,11.102823,11.116791,11.136836,11.150856,11.168325,11.179237,11.19218,11.200756,11.21263,11.221569,11.228125,11.232335,11.237622,11.242125,11.245069,11.246143,11.2451105,11.244453,11.245294,11.245522,11.24488,11.244131,11.243727,11.242488,11.241009,11.2375145,11.233755,11.230293,11.226183,11.217371,11.20477,11.190353,11.171984,11.155017,11.130983,11.108933,11.077628,11.051925,11.023067,11.012336,10.966704,10.916092,10.851586,10.79374,10.295189,9.539983,7.7687163,6.1150784
4.4301443,4.233733,4.337075,6.5544286,9.228352,10.568275,10.763054,10.95252,10.917069,10.962463,10.997493,11.020424,11.042651,11.057286,11.07718,11.092137,11.11263,11.126419,11.146093,11.15977,11.176927,11.1877,11.200385,11.208704,11.220164,11.228704,11.234913,11.238822,11.24381,11.247955,11.250517,11.251257,11.250102,11.249371,11.2501745,11.250411,11.249798,11.249253,11.249104,11.248171,11.246884,11.243668,11.240121,11.236892,11.233012,11.2245655,11.212509,11.198817,11.181431,11.165347,11.142665,11.122346,11.091876,11.065092,11.036457,11.027356,10.984908,10.937237,10.8725195,10.811994,10.328221,9.593089,7.823213,6.158853
4.4593344,4.2614408,4.3614845,6.5673003,9.230168,10.568084,10.766977,10.958949,10.9251585,10.9702015,11.004618,11.02803,11.050608,11.065031,11.084693,11.09961,11.120009,11.133709,11.153145,11.166576,11.1834955,11.194149,11.206619,11.214718,11.225814,11.233998,11.239893,11.243533,11.248259,11.252106,11.254354,11.254844,11.253616,11.252876,11.25369,11.254012,11.253494,11.253196,11.253297,11.252663,11.251565,11.248628,11.2453,11.242316,11.238676,11.230622,11.2191305,11.206173,11.189743,11.174517,11.153079,11.134264,11.104627,11.077154,11.048763,11.040862,11.000887,10.955584,10.891238,10.829152,10.351929,9.625837,7.855353,6.185684
4.4997993,4.301198,4.398055,6.585019,9.228771,10.5643015,10.771201,10.967408,10.936052,10.980582,11.013863,11.037615,11.060448,11.074606,11.094046,11.10897,11.129426,11.143209,11.162584,11.175852,11.192641,11.203231,11.215556,11.223469,11.234219,11.242048,11.247655,11.251049,11.255521,11.25905,11.260943,11.261121,11.259774,11.258961,11.259732,11.260105,11.259687,11.259625,11.259959,11.259551,11.258551,11.255769,11.252555,11.249645,11.246115,11.238366,11.227454,11.215302,11.199993,11.185775,11.165818,11.148583,11.120489,11.093592,11.066144,11.058929,11.021693,10.979732,10.916202,10.852285,10.382785,9.666775,7.8898396,6.208491
4.5301323,4.3314962,4.426645,6.598523,9.22653,10.560155,10.773703,10.973581,10.9444,10.988588,11.02083,11.044579,11.067431,11.081447,11.100827,11.11581,11.136458,11.150453,11.169976,11.183253,11.200092,11.210719,11.223057,11.230927,11.241539,11.2492075,11.254705,11.258004,11.2623625,11.265711,11.267385,11.267334,11.265874,11.264945,11.265632,11.265973,11.265591,11.26561,11.266027,11.265628,11.264561,11.261698,11.258406,11.255327,11.251685,11.2439575,11.233305,11.221587,11.206949,11.193339,11.174307,11.157894,11.131238,11.105851,11.079576,11.072225,11.036604,10.997218,10.934433,10.869299,10.406677,9.698929,7.912005,6.2158685
4.5781183,4.3794575,4.471917,6.620194,9.223441,10.553631,10.776938,10.981871,10.95555,10.998913,11.0296135,11.053773,11.076944,11.090602,11.109673,11.124637,11.145407,11.159597,11.179208,11.192426,11.209231,11.219842,11.232118,11.239884,11.250275,11.257716,11.263065,11.266252,11.270479,11.273615,11.27502,11.274681,11.273066,11.271975,11.272536,11.272827,11.272488,11.27263,11.273182,11.272868,11.271795,11.268938,11.2656355,11.262453,11.258755,11.251137,11.240859,11.229703,11.215914,11.203076,11.185244,11.169901,11.145168,11.12185,11.097142,11.089529,11.056214,11.020579,10.958552,10.89125,10.439714,9.746416,7.953784,6.243268
4.615361,4.4167075,4.5070457,6.636888,9.220773,10.548225,10.778975,10.987453,10.9629965,11.005564,11.035151,11.059912,11.083523,11.096819,11.115509,11.13038,11.151119,11.165361,11.184922,11.198029,11.214717,11.225253,11.237413,11.245067,11.255262,11.262528,11.267763,11.27087,11.27502,11.278026,11.27926,11.278732,11.277014,11.275811,11.276288,11.27654,11.276229,11.276471,11.277139,11.276949,11.275942,11.2731905,11.269964,11.266823,11.263167,11.255705,11.245714,11.234943,11.2217045,11.209372,11.192339,11.17773,11.154271,11.132275,11.108587,11.10081,11.069191,11.036291,10.974547,10.905343,10.462848,9.782078,7.991609,6.275521
4.6725693,4.4729533,4.559623,6.666875,9.226822,10.547296,10.783278,10.995166,10.973211,11.014125,11.041943,11.067723,11.092116,11.104824,11.122901,11.137632,11.158354,11.172707,11.192316,11.205389,11.222037,11.232534,11.24462,11.252184,11.262207,11.269314,11.27447,11.277538,11.281636,11.284525,11.2855835,11.284845,11.282992,11.281634,11.281983,11.282173,11.28189,11.282262,11.28308,11.283081,11.282203,11.279632,11.276532,11.273486,11.269916,11.262653,11.253003,11.242673,11.230081,11.218367,11.202327,11.188615,11.166809,11.146617,11.124225,11.116045,11.086662,11.057564,10.996574,10.925142,10.491795,9.824257,8.039152,6.321542
4.717057,4.515985,4.599496,6.693323,9.238862,10.551924,10.787505,11.000552,10.980278,11.01962,11.046037,11.072648,11.097691,11.109914,11.127487,11.142106,11.16282,11.17727,11.196984,11.210119,11.226821,11.237329,11.24942,11.256967,11.266935,11.273991,11.279151,11.282242,11.286354,11.28921,11.290197,11.289354,11.287427,11.285967,11.286222,11.286362,11.286096,11.2865505,11.287472,11.287623,11.286867,11.2844515,11.281463,11.278522,11.275029,11.267899,11.258437,11.248332,11.23609,11.224727,11.209277,11.196086,11.1753235,11.156351,11.134752,11.126162,11.098238,11.071777,11.011592,10.938948,10.509578,9.848355,8.069286,6.355637
4.781411,4.576995,4.655153,6.7348695,9.265318,10.565624,10.795443,11.008729,10.990912,11.028038,11.052368,11.0796,11.105101,11.1166315,11.133522,11.147966,11.168639,11.183197,11.203042,11.21626,11.233029,11.2435465,11.255625,11.263124,11.273,11.279983,11.285146,11.288284,11.292434,11.295297,11.296241,11.29534,11.293387,11.291881,11.292071,11.292207,11.291997,11.292596,11.293663,11.294031,11.293442,11.291227,11.288364,11.285523,11.282088,11.275076,11.265775,11.255843,11.2438965,11.23285,11.2179985,11.205342,11.185757,11.168216,11.147544,11.138414,11.112365,11.089274,11.030516,10.956882,10.533319,9.880728,8.110365,6.4025145
4.835088,4.6270986,4.700516,6.773629,9.296762,10.584318,10.80416,11.015856,10.999881,11.035402,11.058192,11.085409,11.110802,11.121742,11.138074,11.152343,11.172926,11.18752,11.207424,11.220696,11.237507,11.248025,11.260076,11.267522,11.277307,11.284223,11.289386,11.292577,11.296778,11.299697,11.300667,11.29981,11.297914,11.29646,11.29666,11.296848,11.2967005,11.29743,11.298615,11.299174,11.298735,11.296695,11.293929,11.291176,11.287777,11.280826,11.271577,11.261664,11.249788,11.238852,11.224279,11.211876,11.192968,11.17633,11.156167,11.146546,11.121683,11.100856,11.0438,10.970496,10.549802,9.901248,8.139138,6.439227
4.906183,4.694043,4.762013,6.827705,9.342046,10.612659,10.818314,11.026363,11.011973,11.0464525,11.0681925,11.094838,11.119426,11.129534,11.145056,11.159005,11.179292,11.193776,11.213543,11.226744,11.243464,11.253925,11.265847,11.273151,11.282711,11.289446,11.294509,11.297703,11.30194,11.30493,11.305936,11.305169,11.303393,11.302082,11.302356,11.302653,11.302583,11.303504,11.304877,11.305761,11.305599,11.30389,11.301342,11.298836,11.295598,11.288822,11.279697,11.269865,11.258127,11.247385,11.233216,11.221165,11.203126,11.187664,11.167975,11.157441,11.133623,11.115236,11.061632,10.990789,10.569203,9.918921,8.1691675,6.486022
4.9729285,4.7577662,4.8221054,6.8847275,9.393554,10.6455965,10.833243,11.036083,11.023089,11.057182,11.078481,11.104161,11.127542,11.136865,11.151645,11.16528,11.185252,11.1996,11.219198,11.232314,11.24895,11.259376,11.271194,11.278376,11.287727,11.294288,11.299258,11.302472,11.306775,11.309885,11.310976,11.31036,11.308752,11.307629,11.30801,11.3084135,11.308378,11.309425,11.310933,11.31209,11.3121805,11.310769,11.30842,11.306163,11.3031,11.296492,11.287461,11.27767,11.266008,11.255402,11.241527,11.2297325,11.212343,11.197811,11.178321,11.166788,11.143458,11.126748,11.077022,11.009815,10.582942,9.924882,8.189076,6.528375
5.0477376,4.8299327,4.891583,6.9547124,9.459915,10.686958,10.84859,11.045049,11.034826,11.068092,11.088534,11.113292,11.135557,11.144063,11.158124,11.171502,11.191318,11.2056875,11.225345,11.238536,11.255275,11.265771,11.277634,11.284796,11.294061,11.300541,11.305526,11.308852,11.313315,11.316629,11.31786,11.317419,11.315976,11.315006,11.315454,11.315882,11.315816,11.316871,11.318422,11.319725,11.319984,11.318754,11.31652,11.314413,11.311454,11.304945,11.295967,11.286171,11.274547,11.264035,11.25043,11.238891,11.222169,11.208595,11.189289,11.176684,11.153913,11.139077,11.093243,11.029471,10.595065,9.927014,8.208771,6.576342
5.1288347,4.9103312,4.9714184,7.0345435,9.53349,10.73192,10.864632,11.054079,11.047072,11.07924,11.098611,11.122468,11.143681,11.151369,11.164739,11.177901,11.197641,11.212108,11.231915,11.245238,11.262183,11.272838,11.284843,11.292055,11.301308,11.307775,11.31286,11.316397,11.321115,11.324738,11.326207,11.326042,11.324832,11.324069,11.324608,11.325046,11.32491,11.325892,11.3274145,11.328764,11.32912,11.327965,11.325766,11.323723,11.320811,11.314332,11.305337,11.295463,11.283797,11.273308,11.259882,11.248525,11.232328,11.219543,11.200316,11.186704,11.164329,11.1510725,11.108766,11.048198,10.605446,9.926936,8.229276,6.628948
5.205158,4.987131,5.048516,7.108126,9.597261,10.77047,10.879674,11.063107,11.058587,11.08959,11.107882,11.130988,11.15131,11.158233,11.170955,11.1839285,11.203588,11.218115,11.238006,11.251399,11.268517,11.279337,11.291467,11.298703,11.307924,11.314372,11.31956,11.323326,11.328309,11.332276,11.334034,11.3342285,11.333324,11.332863,11.333562,11.33409,11.333927,11.33489,11.336404,11.337815,11.33826,11.337157,11.334965,11.332956,11.330062,11.323568,11.314512,11.304514,11.292759,11.28226,11.268951,11.257713,11.241911,11.229749,11.2105465,11.196067,11.173987,11.16202,11.122571,11.064622,10.616058,9.930463,8.251818,6.67937
5.30216,5.0870986,5.1506324,7.2000566,9.669943,10.813327,10.898324,11.075249,11.073413,11.102896,11.119802,11.142126,11.161522,11.167581,11.179527,11.192233,11.2117405,11.226306,11.246242,11.259676,11.276959,11.287973,11.300253,11.307535,11.316738,11.323185,11.328525,11.332581,11.337895,11.342278,11.344382,11.344991,11.344421,11.344271,11.34512,11.345688,11.345439,11.346303,11.347757,11.349182,11.349698,11.348635,11.346449,11.344499,11.341654,11.335171,11.326057,11.315921,11.30405,11.2935295,11.28032,11.269184,11.253743,11.242157,11.223021,11.207809,11.186026,11.175185,11.138509,11.083223,10.629087,9.937229,8.282638,6.7435813
5.3825326,5.1707516,5.2365546,7.274736,9.725604,10.845497,10.913275,11.085377,11.085568,11.1139145,11.129793,11.1515665,11.170294,11.175709,11.187047,11.199511,11.218858,11.233436,11.253375,11.266822,11.284216,11.295367,11.307769,11.315107,11.324317,11.33078,11.336249,11.340541,11.346123,11.350821,11.353181,11.354059,11.3537,11.353716,11.354628,11.355145,11.354772,11.355489,11.356858,11.358266,11.358841,11.357819,11.355662,11.353799,11.351039,11.344611,11.335492,11.325279,11.313354,11.302845,11.289754,11.278731,11.263623,11.252509,11.233544,11.217944,11.19646,11.186417,11.151896,11.098736,10.639562,9.942092,8.307683,6.7968717
5.496525,5.2909102,5.361191,7.381303,9.8023205,10.889746,10.935413,11.101381,11.104386,11.130846,11.144938,11.165907,11.183724,11.188261,11.198707,11.210739,11.229765,11.244312,11.264206,11.277641,11.2951145,11.306391,11.318898,11.326283,11.335472,11.34193,11.347538,11.352086,11.35795,11.362972,11.365593,11.366738,11.36658,11.36672,11.367638,11.36802,11.367456,11.367933,11.369155,11.370467,11.371062,11.370066,11.36796,11.366237,11.363627,11.357323,11.348241,11.337965,11.32595,11.315416,11.302349,11.291337,11.276388,11.265577,11.246678,11.230726,11.209425,11.199948,11.16731,11.116203,10.654514,9.955297,8.347573,6.870318
5.5838566,5.3835907,5.458097,7.464942,9.863143,10.925188,10.953308,11.114621,11.119931,11.144709,11.157158,11.177435,11.19452,11.198365,11.208085,11.219733,11.238472,11.252995,11.272849,11.286271,11.303772,11.315102,11.327648,11.335037,11.344178,11.350604,11.356277,11.360969,11.366982,11.372183,11.374944,11.376232,11.376187,11.376367,11.377246,11.377497,11.376789,11.377069,11.378161,11.379358,11.379924,11.3789215,11.3768635,11.375258,11.372789,11.36662,11.357608,11.347327,11.33525,11.324679,11.3115425,11.300438,11.2854185,11.274624,11.255614,11.2394285,11.218102,11.208787,11.176979,11.126933,10.66597,9.968898,8.380097,6.9244328
5.7125807,5.5208178,5.6007757,7.582043,9.941292,10.969739,10.978936,11.13488,11.14299,11.165361,11.175447,11.194882,11.211085,11.2140255,11.222728,11.233786,11.251991,11.266345,11.286007,11.299349,11.316824,11.328205,11.340786,11.348188,11.357287,11.363701,11.369492,11.37439,11.3806,11.386018,11.388955,11.390428,11.39053,11.390763,11.391585,11.391664,11.390775,11.390825,11.391775,11.392845,11.39338,11.392367,11.390352,11.388869,11.386532,11.380458,11.371425,11.361005,11.348707,11.337983,11.324636,11.31331,11.298056,11.287145,11.267994,11.251693,11.2302475,11.220803,11.189407,11.140258,10.684423,9.995995,8.435178,7.0075645
5.8068185,5.62165,5.705088,7.6640377,9.991609,10.997668,10.997103,11.150044,11.159902,11.180531,11.188913,11.207884,11.223601,11.225951,11.233942,11.244559,11.262307,11.276451,11.295882,11.309122,11.326536,11.337941,11.350534,11.357951,11.367038,11.373469,11.379364,11.384421,11.390767,11.396333,11.39939,11.400989,11.401201,11.401478,11.402267,11.402244,11.401245,11.401174,11.402057,11.403073,11.403602,11.402586,11.400587,11.399163,11.396872,11.390796,11.381665,11.371055,11.358511,11.347617,11.334061,11.322523,11.307045,11.295984,11.276764,11.260524,11.238958,11.2292185,11.197645,11.148746,10.699391,10.020908,8.480416,7.0705943
5.94601,5.770271,5.857648,7.7772985,10.053049,11.03131,11.024496,11.173768,11.184644,11.203365,11.209736,11.227586,11.242167,11.243721,11.250716,11.260627,11.277635,11.291436,11.3105135,11.323621,11.340943,11.352376,11.365,11.372455,11.381542,11.38799,11.39399,11.399188,11.405647,11.411318,11.414459,11.416126,11.416394,11.416626,11.417304,11.417052,11.415852,11.415525,11.416254,11.417116,11.417579,11.416484,11.4144535,11.413042,11.410765,11.404638,11.3953285,11.384392,11.371429,11.360217,11.34624,11.334294,11.31831,11.306847,11.287422,11.271356,11.249492,11.239058,11.207142,11.158677,10.715568,10.048213,8.542807,7.167461
6.049668,5.880743,5.970117,7.8555017,10.0886545,11.050238,11.0451145,11.19233,11.202827,11.22062,11.225864,11.242603,11.256073,11.2571,11.263408,11.272761,11.28918,11.3027,11.321504,11.334527,11.351786,11.363238,11.375897,11.383401,11.392513,11.398974,11.405024,11.41027,11.416756,11.42243,11.425573,11.427211,11.42745,11.427576,11.428134,11.42767,11.4262905,11.425734,11.426319,11.427017,11.427398,11.426193,11.424097,11.422639,11.420326,11.414115,11.404633,11.3934145,11.380086,11.368582,11.354208,11.341879,11.325388,11.31348,11.293822,11.277941,11.255751,11.244589,11.212304,11.164162,10.723555,10.062261,8.58661,7.242577
6.194395,6.0345855,6.1257653,7.9585705,10.128363,11.069662,11.072256,11.217619,11.227184,11.244207,11.248308,11.263505,11.27542,11.275803,11.281308,11.290014,11.3057575,11.318968,11.337521,11.350517,11.367804,11.379359,11.392173,11.399822,11.409073,11.415641,11.421838,11.427216,11.433798,11.439534,11.44272,11.444364,11.444597,11.444628,11.445066,11.444369,11.442787,11.441973,11.442398,11.442905,11.443176,11.441801,11.439574,11.437999,11.435579,11.429175,11.419377,11.407692,11.393774,11.38179,11.366773,11.353845,11.336531,11.323908,11.303715,11.287894,11.26499,11.252652,11.219669,11.171855,10.733412,10.07928,8.647261,7.3501444
6.308113,6.1549625,6.246423,8.03299,10.149089,11.077895,11.092314,11.237039,11.24508,11.261918,11.265558,11.279641,11.290428,11.290433,11.295461,11.30376,11.3190775,11.332088,11.350524,11.363567,11.38096,11.392654,11.405678,11.413517,11.422981,11.429718,11.436105,11.441635,11.448336,11.45416,11.457411,11.459086,11.459329,11.459319,11.4597025,11.458883,11.457182,11.456225,11.456565,11.456962,11.457156,11.455643,11.45328,11.451558,11.448993,11.442362,11.43224,11.420116,11.405662,11.393235,11.377634,11.364177,11.346111,11.332832,11.3120575,11.296149,11.272453,11.259002,11.225332,11.177719,10.738535,10.087447,8.69301,7.438217
6.451616,6.3061376,6.396983,8.123371,10.170665,11.085385,11.116957,11.2606325,11.265722,11.282028,11.28528,11.298551,11.308516,11.3082,11.31274,11.320582,11.33539,11.348127,11.366405,11.379508,11.397061,11.408965,11.422314,11.430467,11.440306,11.447362,11.454081,11.459879,11.466803,11.472809,11.476207,11.477987,11.47827,11.478259,11.478621,11.477728,11.475941,11.474895,11.475195,11.475554,11.475734,11.474114,11.471609,11.469701,11.466919,11.459956,11.449375,11.436657,11.4214945,11.4084835,11.392144,11.378043,11.359075,11.3449955,11.323518,11.307527,11.282785,11.267847,11.23341,11.186181,10.742426,10.091016,8.747531,7.552915
6.576811,6.4374905,6.527117,8.199498,10.185853,11.089676,11.138097,11.280733,11.282533,11.298316,11.301487,11.314436,11.324086,11.323644,11.327888,11.335394,11.349783,11.362257,11.380375,11.393523,11.411208,11.4233,11.436953,11.445412,11.455638,11.463027,11.470073,11.4761305,11.4832735,11.489466,11.493018,11.494916,11.495243,11.495261,11.495641,11.494746,11.492937,11.491879,11.4921875,11.492567,11.492759,11.491061,11.48842,11.48631,11.483288,11.4759865,11.464976,11.451724,11.435948,11.422428,11.405455,11.390814,11.371057,11.356271,11.334096,11.317935,11.292093,11.275693,11.240647,11.193894,10.741922,10.085413,8.790485,7.6564417
6.714019,6.581649,6.670387,8.285317,10.20626,11.096994,11.161934,11.303147,11.301653,11.316884,11.319916,11.332387,11.3415785,11.34098,11.344889,11.352023,11.365942,11.378119,11.396042,11.409217,11.427004,11.439259,11.453181,11.461912,11.472529,11.480178,11.487179,11.493141,11.50045,11.50694,11.510762,11.512863,11.513225,11.5132265,11.513585,11.512636,11.510759,11.509789,11.510293,11.510745,11.510862,11.509007,11.50617,11.503792,11.500485,11.492808,11.481355,11.467555,11.451159,11.437136,11.419514,11.404304,11.383674,11.368109,11.345044,11.328511,11.301207,11.282985,11.24807,11.203085,10.740233,10.075015,8.834147,7.7696095
6.854613,6.7296114,6.8183265,8.377561,10.233973,11.109218,11.187561,11.326869,11.322687,11.337478,11.34044,11.3524065,11.36113,11.360436,11.364034,11.370758,11.384109,11.395887,11.41345,11.426524,11.444247,11.456553,11.470622,11.479551,11.490365,11.498285,11.505902,11.512395,11.5198145,11.526186,11.529901,11.5318985,11.532241,11.532254,11.532641,11.531709,11.529844,11.528655,11.5288315,11.529046,11.529116,11.527069,11.524017,11.521343,11.517747,11.509727,11.497902,11.483665,11.466773,11.452342,11.434148,11.418422,11.396923,11.380534,11.356521,11.339594,11.310848,11.290967,11.254534,11.20892,10.733784,10.060348,8.876576,7.8857045
6.9858074,6.8678865,6.9573183,8.467004,10.265088,11.124338,11.212567,11.3498,11.343642,11.358085,11.3610115,11.372516,11.380844,11.380131,11.383466,11.389788,11.402533,11.413864,11.430966,11.443842,11.461378,11.473656,11.487831,11.496914,11.507362,11.5153055,11.524742,11.533025,11.540518,11.546049,11.548961,11.550318,11.550595,11.550752,11.551322,11.550608,11.548955,11.546967,11.545792,11.54557,11.546204,11.544215,11.540901,11.537974,11.534151,11.52587,11.513783,11.499254,11.482011,11.467268,11.448588,11.432413,11.41011,11.392915,11.368054,11.350871,11.321049,11.300025,11.2597885,11.210011,10.724223,10.046917,8.916823,7.9936137
7.141755,7.03273,7.1240687,8.577842,10.308682,11.146377,11.242657,11.377346,11.370041,11.384389,11.387309,11.398056,11.40566,11.404859,11.407781,11.413528,11.425403,11.436084,11.452439,11.464921,11.482044,11.494168,11.508167,11.517325,11.528134,11.537038,11.5486965,11.5588255,11.566435,11.57113,11.573307,11.574026,11.574171,11.574311,11.574921,11.574212,11.572603,11.56981,11.56746,11.565862,11.565675,11.563105,11.559738,11.556526,11.552439,11.54388,11.531546,11.516763,11.499216,11.484183,11.465024,11.448403,11.425242,11.407128,11.381426,11.36416,11.333419,11.311435,11.264789,11.207204,10.711483,10.034974,8.967448,8.120297
7.2659497,7.164307,7.257644,8.667995,10.345981,11.1654825,11.266738,11.399347,11.391579,11.406002,11.408864,11.418766,11.425505,11.42452,11.426982,11.4321785,11.443246,11.453349,11.469016,11.481111,11.497841,11.509811,11.523454,11.532603,11.544601,11.5551605,11.568155,11.579044,11.586884,11.591492,11.593715,11.594392,11.594441,11.5943775,11.594801,11.593782,11.591924,11.588954,11.586638,11.583191,11.58055,11.576808,11.573754,11.5703535,11.566036,11.557249,11.544719,11.52973,11.511943,11.496692,11.477177,11.460235,11.436446,11.417642,11.391359,11.374118,11.342773,11.320138,11.267935,11.203436,10.700824,10.026555,9.007227,8.217892
7.431921,7.340305,7.4363136,8.788672,10.395821,11.189909,11.297018,11.427601,11.42043,11.43538,11.438371,11.447284,11.452954,11.451749,11.453647,11.45817,11.468214,11.477554,11.492293,11.50385,11.519986,11.531669,11.544607,11.553639,11.567856,11.58113,11.595106,11.605885,11.613721,11.618174,11.62036,11.62085,11.620644,11.62012,11.620154,11.618578,11.616311,11.613123,11.6109495,11.605377,11.599819,11.594502,11.591587,11.587819,11.583203,11.574109,11.561348,11.546146,11.528127,11.5126505,11.492757,11.475474,11.450969,11.431297,11.404473,11.387561,11.35574,11.332362,11.27301,11.199649,10.693397,10.028555,9.073631,8.356401
7.55491,7.47117,7.568786,8.877906,10.432316,11.207218,11.318559,11.448018,11.44182,11.457401,11.460605,11.468822,11.473721,11.472387,11.473896,11.477926,11.487231,11.49603,11.510154,11.521392,11.537159,11.548609,11.560586,11.569101,11.585387,11.601235,11.61555,11.625565,11.633184,11.637409,11.639381,11.639564,11.639096,11.638177,11.637887,11.635885,11.633336,11.629887,11.627648,11.620835,11.613694,11.607451,11.604518,11.600431,11.595558,11.586217,11.57329,11.557952,11.539798,11.52419,11.504065,11.486576,11.461595,11.441288,11.414216,11.397778,11.365797,11.34188,11.277489,11.197973,10.692227,10.038025,9.131976,8.466375
7.7285886,7.653384,7.7547183,9.001433,10.479639,11.227264,11.345583,11.474713,11.47102,11.487666,11.491445,11.499507,11.504057,11.502635,11.5038185,11.507496,11.51601,11.524058,11.53712,11.547603,11.562216,11.573013,11.585907,11.596244,11.614166,11.630787,11.6449175,11.654024,11.661013,11.664478,11.665751,11.665137,11.664127,11.662507,11.661682,11.659039,11.656102,11.652256,11.649858,11.64235,11.63438,11.626654,11.622468,11.617615,11.612643,11.603045,11.589976,11.574544,11.556289,11.54054,11.520138,11.502416,11.476846,11.455754,11.428284,11.412274,11.38005,11.355526,11.285318,11.198794,10.696785,10.059593,9.218847,8.620195
7.8510838,7.7801294,7.88548,9.087287,10.510399,11.238675,11.362649,11.492349,11.491125,11.508645,11.513009,11.521486,11.526256,11.524845,11.5259,11.529461,11.537497,11.544993,11.557203,11.567023,11.580318,11.590301,11.60558,11.619238,11.637423,11.65252,11.666229,11.675003,11.681347,11.683903,11.684315,11.682808,11.681289,11.679082,11.677825,11.674692,11.671486,11.667325,11.664759,11.657477,11.649876,11.640963,11.635032,11.629406,11.62455,11.614831,11.601714,11.586284,11.568009,11.552187,11.531619,11.513761,11.4878235,11.466239,11.438456,11.422599,11.390184,11.365319,11.29182,11.201403,10.703473,10.078997,9.282101,8.727492
8.032028,7.965396,8.070429,9.205726,10.550572,11.250901,11.383105,11.514462,11.517485,11.535857,11.540943,11.550892,11.556768,11.555187,11.556851,11.561833,11.570656,11.577889,11.588023,11.595204,11.6075325,11.618561,11.635764,11.651064,11.669174,11.682459,11.69328,11.699329,11.70446,11.70691,11.707833,11.706472,11.704216,11.700997,11.699146,11.695417,11.69193,11.68751,11.684862,11.678002,11.670908,11.660167,11.651638,11.645257,11.64105,11.631367,11.618201,11.60282,11.5845585,11.568676,11.547931,11.529935,11.503568,11.481447,11.453015,11.436812,11.403907,11.378756,11.301858,11.207591,10.720773,10.119014,9.37957,8.878361
8.166245,8.101757,8.202812,9.288326,10.576589,11.256543,11.394956,11.52808,11.534638,11.553385,11.5589905,11.57069,11.577996,11.576172,11.578873,11.58604,11.59648,11.603869,11.612007,11.616268,11.6285,11.64165,11.659249,11.673661,11.6911125,11.703018,11.710251,11.712989,11.717065,11.720181,11.722559,11.722223,11.719495,11.715515,11.713294,11.709243,11.70565,11.701192,11.698593,11.692165,11.685506,11.67347,11.66305,11.656228,11.652624,11.643062,11.629911,11.614606,11.596382,11.58049,11.559663,11.541607,11.515005,11.4926405,11.463576,11.446653,11.413223,11.388054,11.3096285,11.213761,10.739088,10.157408,9.455457,8.985335
8.352655,8.2969675,8.397999,9.411304,10.614039,11.26466,11.412956,11.547127,11.557216,11.576548,11.583635,11.59847,11.608403,11.606453,11.61068,11.620829,11.633502,11.641017,11.648515,11.65168,11.664039,11.678031,11.695209,11.707761,11.720605,11.7277,11.73198,11.733552,11.736796,11.739871,11.742417,11.742712,11.7407,11.737386,11.73534,11.731567,11.728239,11.724023,11.721497,11.715421,11.709085,11.696827,11.685416,11.675247,11.668378,11.6581335,11.645937,11.6308,11.612698,11.596959,11.576272,11.5583725,11.531648,11.5090885,11.478841,11.460246,11.425875,11.401153,11.319521,11.219653,10.765468,10.21758,9.569787,9.140653
8.497898,8.4539795,8.55928,9.513162,10.643028,11.270268,11.427989,11.562034,11.573929,11.594316,11.603398,11.620803,11.632847,11.630789,11.636763,11.650193,11.66493,11.671925,11.679753,11.683707,11.695921,11.708876,11.724278,11.7343855,11.741753,11.744085,11.747309,11.74983,11.75282,11.755383,11.75711,11.757463,11.756686,11.754753,11.753202,11.75001,11.74708,11.743206,11.740758,11.734969,11.728967,11.718013,11.707418,11.69413,11.683086,11.671722,11.660242,11.64514,11.627033,11.61122,11.590395,11.572404,11.545502,11.523023,11.491547,11.470801,11.435423,11.41161,11.326531,11.221864,10.787051,10.270817,9.6645975,9.262864
8.680372,8.654418,8.769241,9.644766,10.67691,11.275496,11.448428,11.582148,11.59624,11.620653,11.633658,11.652375,11.664293,11.659803,11.670116,11.69407,11.713726,11.71664,11.721924,11.725707,11.735064,11.744281,11.754545,11.7606535,11.7647085,11.765682,11.767983,11.770305,11.772866,11.775032,11.776359,11.7765665,11.776015,11.774297,11.7727375,11.769521,11.766559,11.762751,11.760405,11.755814,11.751507,11.744071,11.736708,11.725841,11.71492,11.701524,11.687231,11.671334,11.652553,11.635006,11.6119175,11.592047,11.564025,11.542403,11.508888,11.483283,11.446909,11.427123,11.336731,11.222092,10.810239,10.334707,9.778155,9.408358
8.837759,8.8320465,8.959408,9.765027,10.707714,11.281621,11.469658,11.602623,11.618118,11.647233,11.664185,11.682369,11.693732,11.689555,11.703572,11.733387,11.754648,11.753676,11.756248,11.759622,11.765745,11.771026,11.776262,11.779147,11.78246,11.784616,11.786688,11.788455,11.790691,11.792562,11.793707,11.793552,11.792539,11.790269,11.788389,11.7847805,11.78154,11.777573,11.775261,11.771785,11.769151,11.765046,11.761069,11.75493,11.746823,11.73253,11.715325,11.6986685,11.679018,11.659647,11.633943,11.611633,11.581883,11.560667,11.52561,11.496753,11.458267,11.439111,11.341937,11.218363,10.82847,10.390727,9.872351,9.523956
9.00894,9.027209,9.168332,9.897931,10.74314,11.291036,11.49617,11.6278305,11.643673,11.6766615,11.697162,11.713735,11.72869,11.736136,11.751368,11.768488,11.780774,11.780499,11.78306,11.786204,11.791265,11.7953005,11.798955,11.800724,11.803291,11.805215,11.806837,11.808212,11.810123,11.811695,11.812597,11.812154,11.810908,11.808328,11.806206,11.802338,11.798961,11.794843,11.79245,11.789131,11.786828,11.783321,11.780097,11.775532,11.769259,11.757473,11.742045,11.725794,11.705621,11.686253,11.659493,11.635113,11.60313,11.580624,11.546424,11.521439,11.4777,11.446704,11.337378,11.208961,10.846607,10.451177,9.970539,9.640522
9.182273,9.226871,9.382916,10.042361,10.794676,11.312478,11.528258,11.659134,11.67698,11.711834,11.733734,11.749009,11.76664,11.783395,11.796325,11.797853,11.800203,11.8022585,11.805897,11.808939,11.814163,11.818486,11.822548,11.824556,11.826981,11.828493,11.829787,11.830835,11.832423,11.833635,11.8342495,11.833432,11.831873,11.828885,11.826459,11.822282,11.818777,11.814433,11.811857,11.808129,11.805415,11.801043,11.797159,11.792488,11.787223,11.778416,11.765917,11.750394,11.729998,11.711207,11.684398,11.659402,11.62537,11.600102,11.564756,11.542412,11.4922495,11.44874,11.330843,11.203183,10.8726225,10.519978,10.071132,9.75367
9.338882,9.413172,9.588277,10.1871605,10.85396,11.338579,11.558376,11.689911,11.712387,11.747326,11.769312,11.787073,11.803277,11.813893,11.821372,11.82201,11.823943,11.826204,11.8299055,11.832895,11.837995,11.8422,11.846241,11.848279,11.850639,11.851965,11.852938,11.853507,11.854532,11.855159,11.855411,11.854169,11.852229,11.848777,11.846037,11.841545,11.837907,11.833367,11.830654,11.826756,11.823933,11.819404,11.815414,11.810642,11.805379,11.79673,11.784441,11.769083,11.748673,11.729578,11.702643,11.67881,11.643194,11.614216,11.571675,11.542437,11.487358,11.443643,11.327217,11.202902,10.90526,10.592912,10.163734,9.848883
9.537288,9.628198,9.808578,10.353092,10.947384,11.390645,11.600995,11.733339,11.763746,11.797242,11.815294,11.830993,11.842255,11.846065,11.850101,11.85341,11.857298,11.859413,11.863097,11.8661175,11.871273,11.875469,11.879124,11.880667,11.882691,11.883927,11.8849535,11.885613,11.886627,11.887003,11.886862,11.885003,11.8825655,11.878478,11.875289,11.870301,11.866404,11.861466,11.85846,11.854175,11.851097,11.846234,11.841976,11.836715,11.83094,11.8216305,11.808832,11.79323,11.7726755,11.753067,11.726298,11.704168,11.668456,11.63757,11.589343,11.55333,11.494188,11.451293,11.339419,11.22171,10.956603,10.683648,10.296885,10.008067
9.707275,9.78536,9.945099,10.461621,11.0303545,11.443502,11.636443,11.769724,11.808442,11.841858,11.854344,11.860726,11.866002,11.872353,11.879135,11.882549,11.886873,11.889564,11.893731,11.896867,11.902259,11.906489,11.909092,11.909267,11.910427,11.911628,11.913155,11.914736,11.916655,11.9174595,11.916995,11.914476,11.9116335,11.90702,11.903451,11.897982,11.893792,11.88836,11.884956,11.880152,11.876727,11.871371,11.866721,11.86086,11.854578,11.844856,11.831685,11.815444,11.794266,11.77409,11.747409,11.725877,11.6917095,11.662622,11.615812,11.580234,11.5187645,11.471709,11.3604,11.247879,11.000703,10.752391,10.430197,10.194773
9.944919,10.030115,10.187313,10.655917,11.162357,11.527902,11.699467,11.8300905,11.874857,11.90231,11.905489,11.904174,11.90561,11.914717,11.923479,11.925896,11.928627,11.930107,11.93338,11.936445,11.941664,11.945775,11.947808,11.9473915,11.948201,11.949471,11.951366,11.9535055,11.955916,11.9569645,11.956451,11.95352,11.950217,11.944867,11.940705,11.934531,11.929936,11.923969,11.920222,11.914956,11.911232,11.905508,11.900676,11.894796,11.888722,11.879395,11.866599,11.850377,11.829351,11.809658,11.783908,11.763139,11.730541,11.703235,11.6581745,11.623487,11.560694,11.5103245,11.402293,11.297935,11.073175,10.85224,10.587313,10.39957
10.128559,10.248582,10.433914,10.851032,11.273986,11.595336,11.7557535,11.882211,11.927791,11.945195,11.939905,11.938902,11.941777,11.95061,11.95813,11.959245,11.95898,11.957468,11.958398,11.961094,11.965553,11.969296,11.971657,11.971996,11.973257,11.974589,11.976317,11.978044,11.97995,11.980725,11.98051,11.977713,11.974113,11.96815,11.963433,11.956665,11.951784,11.945608,11.941857,11.936581,11.932886,11.927298,11.922755,11.917687,11.912652,11.9045515,11.892874,11.877513,11.857521,11.83928,11.815011,11.79515,11.763006,11.735653,11.6900215,11.654483,11.591215,11.540676,11.437616,11.340652,11.134442,10.931985,10.675308,10.492375
10.36569,10.512315,10.713139,11.077069,11.421466,11.698596,11.844366,11.959307,12.000426,12.010409,11.99961,11.996934,11.999219,12.008134,12.013616,12.011297,12.007694,12.004952,12.005073,12.007949,12.012569,12.016608,12.0199375,12.021369,12.023571,12.025348,12.027282,12.028821,12.030369,12.030822,12.030695,12.027815,12.02386,12.017308,12.012146,12.00476,11.99945,11.992688,11.98855,11.982645,11.978464,11.972282,11.967471,11.962603,11.958229,11.950965,11.940305,11.926046,11.90736,11.890684,11.86736,11.84724,11.814473,11.786538,11.741359,11.706921,11.646155,11.5977125,11.500586,11.410311,11.225761,11.048642,10.82873,10.6751795
10.515168,10.662841,10.855442,11.197516,11.5176935,11.777389,11.91308,12.015739,12.049688,12.059691,12.04962,12.043434,12.042831,12.052394,12.056413,12.050374,12.045041,12.043724,12.045153,12.0486555,12.054298,12.059146,12.063454,12.065563,12.068576,12.070903,12.073312,12.075031,12.076598,12.076843,12.076468,12.07324,12.069018,12.062184,12.056908,12.049175,12.043495,12.036052,12.031328,12.024494,12.019568,12.012374,12.00687,12.001429,11.996926,11.989617,11.979313,11.965842,11.948041,11.932152,11.908654,11.8871975,11.85305,11.824323,11.780448,11.748586,11.691898,11.6465,11.552821,11.464741,11.292359,11.133014,10.961464,10.848748
10.765023,10.90881,11.0869665,11.381537,11.650417,11.879319,12.004382,12.095076,12.124151,12.133191,12.124965,12.120365,12.12021,12.128471,12.130293,12.12234,12.116852,12.117277,12.120646,12.125285,12.13251,12.138486,12.144335,12.147603,12.151892,12.1551,12.158308,12.160663,12.162938,12.163886,12.163995,12.161379,12.157699,12.151645,12.147022,12.139906,12.134493,12.126925,12.121764,12.113983,12.108094,12.099517,12.092924,12.086427,12.081203,12.072841,12.061414,12.046565,12.027522,12.011006,11.986683,11.9638,11.929192,11.901225,11.859504,11.829691,11.77649,11.73395,11.641755,11.553479,11.397335,11.261698,11.126005,11.041582
10.964847,11.100719,11.265335,11.516918,11.741094,11.945162,12.065009,12.150896,12.180227,12.188597,12.182768,12.183619,12.186696,12.192594,12.192868,12.185864,12.182006,12.183711,12.188728,12.194421,12.202943,12.209737,12.216807,12.221042,12.22638,12.230361,12.234312,12.237435,12.240693,12.2427845,12.243753,12.242273,12.239578,12.234859,12.231256,12.225323,12.220627,12.213528,12.208305,12.200092,12.193583,12.184049,12.176578,12.16905,12.162809,12.15291,12.139518,12.1220045,12.100391,12.082186,12.056845,12.03333,11.999366,11.973026,11.932936,11.903562,11.851431,11.8100815,11.716483,11.625481,11.479815,11.359901,11.228666,11.14518
11.181882,11.308789,11.460228,11.672867,11.855333,12.027813,12.1350155,12.218405,12.254494,12.266687,12.265874,12.271496,12.277077,12.281195,12.281122,12.276055,12.275363,12.27952,12.287604,12.295152,12.305413,12.312902,12.321492,12.3273,12.334957,12.341181,12.347532,12.352456,12.356802,12.359462,12.360767,12.359692,12.357435,12.353423,12.350423,12.345284,12.341156,12.334333,12.328935,12.320455,12.313643,12.303392,12.294888,12.28498,12.276024,12.263297,12.247446,12.227432,12.203657,12.183286,12.157435,12.135919,12.10298,12.075029,12.033624,12.004177,11.95358,11.914641,11.818926,11.723235,11.590953,11.492579,11.375536,11.29827
11.31542,11.434192,11.575862,11.770874,11.935454,12.087042,12.182389,12.266572,12.311404,12.329314,12.333399,12.341164,12.347671,12.351361,12.352452,12.349787,12.352486,12.358973,12.369948,12.379201,12.390802,12.398546,12.408015,12.414856,12.424324,12.432445,12.44085,12.447158,12.452006,12.45454,12.455677,12.454364,12.451999,12.44798,12.445055,12.440128,12.436239,12.429504,12.423989,12.415587,12.408927,12.398563,12.389452,12.3773155,12.365655,12.35047,12.332913,12.311618,12.2868805,12.264917,12.239028,12.220287,12.188187,12.157345,12.113317,12.083422,12.033724,11.996623,11.899296,11.800029,11.676779,11.593313,11.48785,11.415004
11.50467,11.608315,11.726054,11.895136,12.040438,12.172249,12.257183,12.337768,12.386306,12.409079,12.417923,12.426613,12.433312,12.43686,12.439712,12.439858,12.446487,12.4556265,12.470103,12.481583,12.49534,12.503831,12.513813,12.520418,12.529501,12.53694,12.544331,12.54975,12.554169,12.556707,12.558041,12.557122,12.55503,12.551461,12.548944,12.544492,12.540881,12.534322,12.528772,12.520403,12.513768,12.503204,12.493614,12.480109,12.466873,12.450305,12.43173,12.409506,12.383807,12.360691,12.333709,12.314294,12.281952,12.251286,12.207809,12.178434,12.129557,12.093026,11.996297,11.897613,11.785644,11.716886,11.623679,11.557042
11.671812,11.758766,11.850714,11.99923,12.134191,12.255937,12.335866,12.411524,12.458515,12.482825,12.493525,12.501331,12.5078,12.5123415,12.517666,12.520249,12.52998,12.541034,12.557706,12.570304,12.585087,12.593722,12.603214,12.608621,12.615848,12.621151,12.625879,12.629225,12.632651,12.635087,12.636586,12.636108,12.634299,12.631169,12.629029,12.624975,12.621547,12.615188,12.609729,12.601505,12.59497,12.584448,12.574792,12.561092,12.547608,12.530837,12.512041,12.4894905,12.463364,12.440041,12.41217,12.390722,12.357992,12.329337,12.288438,12.260449,12.212393,12.175415,12.081455,11.987084,11.883261,11.822115,11.736951,11.6757555
11.854696,11.922727,11.990818,12.117157,12.239834,12.352855,12.4302225,12.502173,12.546773,12.569311,12.579081,12.586124,12.593923,12.601178,12.610428,12.615698,12.628651,12.641656,12.659182,12.670978,12.684331,12.691489,12.699504,12.703969,12.710049,12.7143545,12.717686,12.719876,12.722669,12.724827,12.726133,12.725673,12.723986,12.721149,12.71928,12.715614,12.712467,12.706399,12.701064,12.693127,12.686855,12.676651,12.667131,12.653343,12.639388,12.621671,12.601618,12.577552,12.550328,12.526684,12.499207,12.478162,12.446816,12.419723,12.381346,12.355457,12.309093,12.272155,12.181801,12.092363,11.995275,11.939419,11.861608,11.806351
12.0293255,12.081277,12.133039,12.242036,12.354359,12.461345,12.537248,12.605179,12.645418,12.6637125,12.670274,12.675878,12.684553,12.694202,12.706582,12.713733,12.728357,12.741937,12.758767,12.768952,12.7799425,12.78518,12.791363,12.794891,12.799886,12.803497,12.806079,12.807741,12.810175,12.812022,12.812963,12.812181,12.810338,12.807479,12.805683,12.802205,12.799229,12.793457,12.788364,12.7808895,12.775025,12.765247,12.755933,12.742242,12.728226,12.710399,12.690339,12.666392,12.639748,12.617001,12.590845,12.570855,12.540883,12.514603,12.478393,12.454968,12.411,12.374706,12.289038,12.20538,12.1135,12.060209,11.988449,11.939036
12.177139,12.219031,12.263048,12.36024,12.463282,12.563943,12.636805,12.700311,12.73653,12.751646,12.755429,12.758851,12.766546,12.776742,12.790289,12.79849,12.813144,12.82567,12.841558,12.851368,12.8613205,12.865485,12.870307,12.872746,12.87628,12.878843,12.88081,12.882333,12.884694,12.886444,12.887136,12.885957,12.883739,12.88056,12.878689,12.875101,12.872002,12.866336,12.861517,12.854512,12.8490305,12.839266,12.829671,12.815648,12.801827,12.785292,12.76774,12.747322,12.724314,12.704169,12.679416,12.659466,12.628886,12.601713,12.566278,12.545026,12.503589,12.468433,12.387228,12.308611,12.22214,12.172209,12.106704,12.062764
12.344922,12.379389,12.418945,12.50754,12.60241,12.695081,12.761622,12.818365,12.849074,12.860378,12.861503,12.863569,12.869734,12.878347,12.890485,12.89838,12.911771,12.922765,12.937075,12.946164,12.955522,12.959583,12.964058,12.966133,12.9690275,12.971059,12.972817,12.974301,12.976508,12.978004,12.97845,12.976853,12.974177,12.970601,12.968613,12.965025,12.961994,12.956702,12.952336,12.946,12.941032,12.931882,12.922681,12.908835,12.895453,12.880636,12.865801,12.848778,12.829017,12.81104,12.7874565,12.767548,12.737029,12.710121,12.676051,12.656407,12.617597,12.584343,12.508153,12.4346485,12.3538685,12.307556,12.24856,12.210176
12.481255,12.510645,12.545736,12.6295395,12.720244,12.805953,12.865416,12.915572,12.941343,12.949434,12.949362,12.952381,12.958203,12.964311,12.973545,12.980069,12.9921,13.002578,13.015257,13.022681,13.031618,13.036631,13.042179,13.045234,13.049225,13.051972,13.054223,13.055693,13.057571,13.058577,13.058809,13.056891,13.05381,13.049887,13.047754,13.044356,13.04171,13.037043,13.033173,13.027547,13.02315,13.015502,13.007748,12.99473,12.981526,12.967513,12.953251,12.936164,12.915912,12.897373,12.873558,12.853638,12.824542,12.800009,12.767996,12.748502,12.711189,12.679885,12.607263,12.5368805,12.460078,12.416628,12.362352,12.327916
12.660282,12.685083,12.715933,12.793516,12.877684,12.953738,13.0038805,13.045793,13.065791,13.070556,13.068905,13.071807,13.075925,13.0786,13.084409,13.089727,13.1005535,13.110485,13.122553,13.129718,13.138856,13.144402,13.150337,13.153466,13.157291,13.159548,13.161038,13.161704,13.162966,13.163638,13.163803,13.16209,13.159251,13.155784,13.154016,13.151316,13.149304,13.145381,13.141921,13.136707,13.132511,13.12564,13.118799,13.106961,13.094683,13.081432,13.067635,13.050941,13.031296,13.013494,12.991194,12.972733,12.946587,12.925251,12.8963995,12.877985,12.842635,12.812924,12.744759,12.679004,12.607119,12.566528,12.516872,12.486164
12.791,12.813463,12.842428,12.914684,12.992487,13.061133,13.105014,13.14169,13.158318,13.161349,13.158224,13.159453,13.161139,13.161493,13.165687,13.171102,13.181815,13.191348,13.204499,13.21352,13.223484,13.228505,13.2334385,13.235167,13.2369175,13.237126,13.236493,13.235763,13.236413,13.237193,13.23752,13.236542,13.234607,13.232332,13.231362,13.22953,13.227996,13.224409,13.220943,13.215453,13.210833,13.203161,13.195788,13.184638,13.173598,13.160675,13.147242,13.131838,13.114394,13.098889,13.07948,13.0633,13.03987,13.020426,12.994035,12.977381,12.943917,12.914975,12.849966,12.787777,12.719186,12.680077,12.632763,12.603839
12.974628,12.993762,13.018812,13.082829,13.151666,13.210922,13.247019,13.275889,13.287063,13.287855,13.28295,13.281604,13.28021,13.278436,13.280725,13.285479,13.29526,13.304054,13.317277,13.327106,13.337124,13.341531,13.345522,13.3462305,13.346618,13.345608,13.343768,13.342239,13.342415,13.343121,13.343466,13.3429165,13.34157,13.340074,13.339572,13.338461,13.337498,13.33467,13.3316965,13.326609,13.322057,13.314313,13.3069725,13.297084,13.287762,13.276027,13.26389,13.25062,13.236193,13.223745,13.207974,13.194594,13.174368,13.15703,13.133739,13.119905,13.087095,13.055769,12.995432,12.941787,12.879505,12.842065,12.797985,12.771512
13.104428,13.1210575,13.142304,13.199967,13.262564,13.316045,13.3474245,13.370344,13.376976,13.376214,13.370234,13.36699,13.363715,13.361206,13.362317,13.365942,13.37442,13.382527,13.394589,13.403506,13.412673,13.4167795,13.420507,13.421269,13.421931,13.42137,13.420062,13.418857,13.418957,13.419416,13.419668,13.419006,13.417575,13.415909,13.415172,13.414091,13.4133835,13.411272,13.409056,13.404882,13.400917,13.393994,13.3873415,13.378606,13.370477,13.360164,13.349534,13.337972,13.325535,13.31503,13.301407,13.289619,13.271159,13.254945,13.233578,13.221944,13.187982,13.15226,13.095434,13.050635,12.994177,12.957632,12.915874,12.891154
