7.2625146,12.878068,19.615593,23.695087,26.059748,26.214231,25.91568,25.884893,25.861137,25.868664,25.902212,25.941715,26.006512,26.060694,26.128641,26.173616,26.21651,26.23788,26.2618,26.27744,26.293217,26.30503,26.313663,26.319992,26.322323,26.329218,26.33821,26.353786,26.36702,26.383358,26.393528,26.399658,26.397612,26.386332,26.36882,26.333979,26.295357,26.247665,26.202501,26.152132,26.101381,26.051178,25.997618,25.952538,25.905222,25.873184,25.837835,25.815058,25.787907,25.771023,25.752895,25.744484,25.734758,25.729988,25.722267,25.716478,25.710514,25.706247,25.699667,25.693518,25.687355,25.683924,25.682707,25.686733,25.6925,25.704676,25.715563,25.734255,25.749464,25.774126,25.793758,25.816032,25.827827,25.84386,25.85422,25.866457,25.87439,25.883474,25.89164,25.903593,25.916319,25.928268,25.938675,25.945164,25.95054,25.953846,25.957792,25.960108,25.967335,25.975788,25.985405,25.99088,25.97562,25.948483,25.919287,25.89329,25.839283,25.770363,25.683884,25.561882,25.407007,25.165558,24.934286,24.514421,24.268202,23.196875,22.108501,18.898005,15.288174,11.03746,8.645136,6.794681,6.641794
9.086453,16.963158,24.274227,25.55503,25.226604,25.404827,25.500355,25.568848,25.61806,25.6263,25.635992,25.64032,25.653559,25.667393,25.689037,25.70658,25.722267,25.73007,25.738686,25.744251,25.750296,25.754045,25.75694,25.754036,25.747475,25.73467,25.724052,25.706516,25.692688,25.669632,25.651115,25.626062,25.609312,25.588669,25.575386,25.553799,25.537144,25.524792,25.519459,25.51225,25.505049,25.496862,25.487354,25.479647,25.469744,25.461727,25.45046,25.442123,25.428947,25.418518,25.404604,25.395533,25.38408,25.37708,25.367977,25.362226,25.356894,25.354044,25.349998,25.345753,25.340372,25.334593,25.329502,25.325224,25.32293,25.321531,25.320852,25.321793,25.32393,25.32559,25.326065,25.321428,25.314337,25.303652,25.29409,25.27874,25.264158,25.245628,25.2291,25.212055,25.196154,25.18023,25.164268,25.151945,25.138811,25.128784,25.119,25.114702,25.107006,25.1004,25.0871,25.075031,25.060888,25.052992,25.050758,25.05099,25.033602,25.001276,24.955471,24.890764,24.815596,24.700336,24.535452,24.422432,24.531847,24.432259,24.572227,22.459187,19.283527,14.27965,10.35156,7.3535585,7.040007
11.513582,19.068058,25.465801,26.136219,25.3828,25.533762,25.636871,25.647484,25.659594,25.675135,25.693563,25.70372,25.719519,25.73114,25.74546,25.754118,25.76123,25.763527,25.766724,25.768507,25.770355,25.77045,25.770176,25.765194,25.757816,25.745869,25.737001,25.721905,25.709455,25.689102,25.672941,25.652298,25.639397,25.623186,25.61278,25.596834,25.584597,25.573774,25.56721,25.55919,25.551155,25.54257,25.532969,25.5253,25.515503,25.50745,25.496387,25.488346,25.475983,25.466372,25.453772,25.445719,25.436049,25.430584,25.423601,25.419476,25.416079,25.414524,25.41162,25.407902,25.402853,25.3971,25.392086,25.387573,25.384825,25.382788,25.381618,25.382269,25.384466,25.386295,25.386885,25.38325,25.377457,25.368546,25.360313,25.346401,25.332724,25.315481,25.299862,25.283245,25.267689,25.252272,25.2379,25.22768,25.218124,25.211037,25.206306,25.206314,25.205347,25.203716,25.19931,25.194727,25.191189,25.190207,25.187534,25.181383,25.161736,25.129997,25.077961,25.0199,24.975658,24.912828,24.798914,24.740404,24.825336,24.894527,25.262836,23.93714,21.846914,16.890102,11.884068,8.004254,7.444387
13.868603,20.259512,25.267506,25.937077,25.434834,25.582344,25.656338,25.636118,25.632322,25.658495,25.686876,25.700884,25.718252,25.727703,25.735212,25.735775,25.735136,25.732512,25.73086,25.729156,25.72697,25.723364,25.719831,25.712559,25.70415,25.692743,25.685398,25.67229,25.66084,25.642433,25.627974,25.610605,25.600603,25.58748,25.579044,25.568235,25.56062,25.55169,25.544537,25.536505,25.528637,25.520802,25.512257,25.50541,25.49634,25.48857,25.478003,25.470438,25.458992,25.450193,25.438679,25.431335,25.422834,25.418304,25.41249,25.409122,25.406313,25.405079,25.402992,25.400091,25.395647,25.390238,25.385515,25.380795,25.377468,25.374428,25.372515,25.371885,25.372995,25.373228,25.372622,25.368017,25.362055,25.35284,25.344477,25.330587,25.31714,25.300333,25.285206,25.269007,25.253859,25.239038,25.22499,25.214626,25.20464,25.19707,25.192232,25.192354,25.193024,25.193447,25.193483,25.193161,25.191898,25.18952,25.178024,25.161238,25.135124,25.102915,25.050158,24.997007,24.963703,24.918682,24.84587,24.766167,24.715097,24.722351,25.029226,24.41164,23.589417,19.076216,13.376663,8.804063,7.891988
14.904846,20.879215,25.3494,25.966656,25.487984,25.580137,25.629004,25.637024,25.652805,25.673689,25.69074,25.6938,25.69935,25.702381,25.700832,25.695087,25.687168,25.679996,25.674229,25.670475,25.666552,25.662266,25.658466,25.651478,25.643456,25.632637,25.625782,25.612928,25.601372,25.582514,25.567516,25.54971,25.539593,25.525518,25.51598,25.504274,25.49668,25.489168,25.484138,25.477715,25.47139,25.46541,25.45878,25.453287,25.445549,25.438606,25.42927,25.422722,25.413105,25.405916,25.396385,25.390228,25.38304,25.379093,25.37364,25.369917,25.365503,25.362507,25.359846,25.35714,25.35262,25.347017,25.342073,25.336742,25.332573,25.328669,25.326492,25.325172,25.325441,25.32475,25.323658,25.31913,25.313766,25.304977,25.29674,25.283112,25.269857,25.253159,25.237963,25.22161,25.20606,25.190784,25.175825,25.164265,25.152977,25.144373,25.139711,25.140985,25.14411,25.146618,25.150557,25.153585,25.158428,25.161592,25.15891,25.15038,25.136164,25.116148,25.085304,25.044912,24.998638,24.93959,24.884794,24.803425,24.69123,24.692732,25.013035,24.738272,24.464472,20.214811,14.327656,9.424352,8.212584
15.674833,21.314934,25.382717,25.976246,25.524643,25.561737,25.585535,25.626371,25.66041,25.668877,25.668144,25.658176,25.64926,25.644848,25.637016,25.630108,25.620924,25.61359,25.606619,25.601385,25.595829,25.590189,25.585604,25.578323,25.570282,25.559868,25.553488,25.541487,25.530659,25.512703,25.498234,25.481285,25.471811,25.458143,25.448612,25.437231,25.430264,25.424313,25.421083,25.416162,25.411213,25.406752,25.401703,25.397406,25.391022,25.3851,25.377161,25.371635,25.363745,25.358017,25.350246,25.345097,25.338902,25.335289,25.330088,25.326147,25.320675,25.316359,25.312687,25.309484,25.304766,25.299164,25.294128,25.288567,25.284103,25.279787,25.27743,25.275291,25.274519,25.272524,25.270622,25.26561,25.260376,25.25146,25.243034,25.229294,25.216011,25.199232,25.18388,25.167257,25.151241,25.135466,25.119667,25.107183,25.09469,25.085203,25.079372,25.079796,25.081678,25.083216,25.08619,25.088818,25.09395,25.098412,25.101748,25.101732,25.100338,25.094587,25.087336,25.063885,25.017817,24.950615,24.893532,24.808315,24.684889,24.685963,24.963057,24.922792,25.084265,21.125141,15.210419,10.074418,8.552703
16.047995,21.559204,25.456614,26.009289,25.541311,25.556423,25.570173,25.618994,25.652351,25.649584,25.636892,25.621208,25.604095,25.594673,25.586685,25.584663,25.58168,25.579386,25.575027,25.56937,25.56261,25.554857,25.548645,25.54004,25.531248,25.520836,25.514896,25.50441,25.49517,25.479826,25.467407,25.453287,25.44576,25.434877,25.427414,25.418978,25.414005,25.409067,25.405716,25.401005,25.39616,25.391708,25.386759,25.382658,25.376755,25.371387,25.364094,25.35891,25.35149,25.346111,25.338715,25.333744,25.327648,25.324013,25.319029,25.315413,25.31058,25.306595,25.302143,25.297915,25.293003,25.287655,25.282764,25.277609,25.273764,25.269857,25.267477,25.264858,25.263477,25.260567,25.257994,25.252201,25.246534,25.237087,25.228357,25.214287,25.200861,25.183998,25.168636,25.151882,25.135746,25.119884,25.104166,25.092005,25.079668,25.070446,25.063002,25.06092,25.058224,25.05598,25.053328,25.05186,25.050327,25.049799,25.050123,25.051401,25.054628,25.05661,25.058968,25.048237,25.024899,24.969816,24.891203,24.804846,24.732174,24.758139,24.970531,25.010912,25.388966,21.59206,15.689062,10.446134,8.758791
16.33024,21.743877,25.51643,26.020512,25.530209,25.541264,25.553108,25.597805,25.620724,25.606737,25.582846,25.562561,25.543133,25.535576,25.531073,25.533012,25.534435,25.5349,25.532085,25.526005,25.518217,25.508808,25.50129,25.491621,25.482197,25.471878,25.466482,25.457447,25.449617,25.436466,25.425694,25.413944,25.408113,25.399464,25.393528,25.387247,25.383701,25.379553,25.376143,25.37151,25.366629,25.36212,25.357252,25.353344,25.347996,25.343277,25.336843,25.332207,25.32561,25.320862,25.314293,25.309853,25.304323,25.300974,25.29661,25.293615,25.28978,25.286474,25.2819,25.277256,25.272543,25.267635,25.263075,25.258196,25.25456,25.250532,25.247849,25.244379,25.242136,25.237856,25.234213,25.227278,25.221079,25.2109,25.201723,25.187164,25.173506,25.156569,25.141218,25.124205,25.107798,25.091795,25.076174,25.064383,25.052305,25.043295,25.034805,25.03106,25.02541,25.020752,25.014631,25.010715,25.005764,25.002975,25.001707,25.003191,25.007576,25.011847,25.014904,25.010237,25.006304,24.970463,24.892277,24.816051,24.778944,24.81166,24.95668,25.066202,25.641527,22.007633,16.137165,10.81766,8.987637
16.37605,21.772575,25.528599,26.004225,25.499544,25.525818,25.544554,25.576057,25.585451,25.56694,25.538853,25.517199,25.502745,25.503365,25.503902,25.506086,25.506924,25.505705,25.502089,25.495726,25.487646,25.47807,25.470383,25.460611,25.451092,25.440939,25.435886,25.427345,25.41985,25.407045,25.396418,25.385038,25.379559,25.371082,25.365059,25.358662,25.355026,25.350962,25.347672,25.342966,25.337975,25.333427,25.328644,25.324842,25.31982,25.315462,25.30962,25.305443,25.299597,25.295446,25.28976,25.285952,25.281181,25.278288,25.274605,25.272139,25.268976,25.266209,25.262259,25.258116,25.25389,25.249329,25.245087,25.240149,25.236113,25.231436,25.228336,25.224134,25.221272,25.215958,25.211458,25.203732,25.197262,25.186634,25.177149,25.162256,25.148445,25.131498,25.116188,25.098938,25.082254,25.066116,25.050507,25.038843,25.026913,25.017876,25.0096,25.006186,25.001265,24.997257,24.992334,24.98943,24.986967,24.986528,24.98654,24.987198,24.988596,24.988188,24.982605,24.973572,24.973131,24.951982,24.898483,24.83802,24.794971,24.810436,24.928047,25.06733,25.72186,22.160833,16.313602,10.982242,9.111302
16.590633,21.888441,25.52851,25.964825,25.453772,25.493914,25.51861,25.53619,25.531523,25.508074,25.479342,25.461845,25.45122,25.45371,25.455648,25.457844,25.458344,25.456522,25.452871,25.446684,25.438547,25.428772,25.420818,25.4108,25.401161,25.391098,25.386236,25.378206,25.371235,25.359138,25.348965,25.338364,25.333513,25.325853,25.320377,25.314566,25.311314,25.307886,25.305151,25.30089,25.296211,25.29191,25.287512,25.284172,25.279928,25.276274,25.271456,25.268045,25.263317,25.259987,25.255424,25.252363,25.24854,25.246233,25.243399,25.241585,25.239325,25.237291,25.234125,25.230583,25.226946,25.222794,25.21887,25.21387,25.209497,25.20409,25.200375,25.195127,25.191412,25.184761,25.179224,25.1703,25.163189,25.151754,25.141806,25.126326,25.11217,25.094975,25.079538,25.06195,25.044968,25.028648,25.013077,25.00163,24.989964,24.980984,24.972927,24.969774,24.96544,24.961973,24.957952,24.95576,24.955227,24.95677,24.958906,24.96073,24.963427,24.962961,24.954134,24.942665,24.941648,24.929644,24.898607,24.855728,24.813257,24.81276,24.893229,25.062737,25.807138,22.349464,16.55988,11.217493,9.274504
16.838655,22.016829,25.513357,25.923014,25.417917,25.464224,25.491302,25.501402,25.489937,25.464624,25.439363,25.428791,25.41903,25.416794,25.416035,25.417835,25.41819,25.41691,25.413874,25.408224,25.400349,25.390553,25.382452,25.372253,25.36257,25.352486,25.347551,25.339718,25.333101,25.32157,25.311821,25.30185,25.29747,25.290676,25.28596,25.280954,25.278242,25.275585,25.273516,25.269938,25.265808,25.261892,25.25796,25.255163,25.251682,25.248644,25.244675,25.241894,25.238007,25.235245,25.231403,25.228792,25.22558,25.223677,25.221386,25.21998,25.218323,25.216805,25.214182,25.211046,25.20778,25.20385,25.200071,25.195019,25.190521,25.184683,25.180502,25.174507,25.170218,25.162708,25.156553,25.146748,25.139015,25.126907,25.11661,25.100634,25.08614,25.068605,25.052954,25.035116,25.017965,25.001522,24.985983,24.974705,24.963259,24.954369,24.94648,24.943481,24.939455,24.936272,24.932602,24.930609,24.930674,24.932955,24.93693,24.941044,24.948036,24.951473,24.945856,24.934637,24.928623,24.91506,24.893023,24.859877,24.821758,24.814169,24.871391,25.0504,25.833683,22.448364,16.725378,11.3843775,9.380038
17.285643,22.254715,25.492434,25.863668,25.376314,25.431883,25.4631,25.46323,25.445517,25.422703,25.399267,25.388933,25.377348,25.372368,25.369774,25.371325,25.371637,25.370867,25.368528,25.36354,25.356033,25.346308,25.338104,25.327782,25.318123,25.308136,25.303225,25.295752,25.289612,25.2789,25.269814,25.26071,25.256903,25.251081,25.247173,25.24309,25.241034,25.239271,25.237995,25.235294,25.231945,25.228647,25.225437,25.223381,25.220877,25.218594,25.21568,25.213722,25.210955,25.208961,25.206144,25.204187,25.201908,25.200651,25.199156,25.198286,25.197412,25.196526,25.194538,25.191832,25.18895,25.185217,25.181572,25.176378,25.17162,25.16518,25.16043,25.153536,25.148554,25.140047,25.133188,25.122452,25.114119,25.101313,25.09061,25.074057,25.059132,25.041142,25.025139,25.006836,24.989315,24.972614,24.957024,24.945866,24.934578,24.925703,24.917902,24.915022,24.911234,24.908255,24.904858,24.903028,24.90376,24.906883,24.912569,24.918617,24.928766,24.93537,24.934378,24.925217,24.913586,24.898373,24.888212,24.867039,24.832697,24.816074,24.84749,25.032995,25.84288,22.602474,17.07044,11.73256,9.554059
17.68566,22.46938,25.474527,25.818672,25.352198,25.413225,25.447083,25.441334,25.422203,25.404676,25.381529,25.36639,25.351404,25.345789,25.342403,25.34384,25.344193,25.34378,25.341965,25.337502,25.330376,25.320852,25.3127,25.302431,25.292904,25.283104,25.278284,25.271114,25.265312,25.255215,25.246649,25.238163,25.234709,25.229471,25.226023,25.222534,25.220953,25.21982,25.219147,25.217142,25.214468,25.211761,25.2092,25.207739,25.205938,25.204153,25.201954,25.200573,25.198599,25.197151,25.195066,25.193588,25.19203,25.191305,25.190403,25.189894,25.189547,25.18907,25.187477,25.185001,25.182304,25.178637,25.175028,25.169693,25.16471,25.157854,25.152754,25.145323,25.139925,25.130865,25.12364,25.112438,25.103819,25.090643,25.079685,25.062756,25.047514,25.029148,25.012817,24.994078,24.976192,24.959257,24.943577,24.932432,24.921165,24.912245,24.904434,24.901604,24.897875,24.89493,24.891577,24.889774,24.890753,24.894217,24.900574,24.907377,24.918457,24.92644,24.92957,24.923098,24.907608,24.889982,24.886055,24.87082,24.836939,24.814941,24.834692,25.01728,25.817606,22.719553,17.414892,12.084485,9.705209
18.050781,22.664598,25.460384,25.782494,25.334972,25.39639,25.429977,25.421013,25.401943,25.388416,25.366217,25.348463,25.331217,25.324621,25.320286,25.32147,25.321756,25.321665,25.320312,25.316381,25.309723,25.300543,25.292534,25.282438,25.27316,25.263695,25.259077,25.252317,25.246908,25.237417,25.229307,25.221405,25.218319,25.213581,25.210503,25.207584,25.206553,25.206242,25.206379,25.205221,25.203344,25.20139,25.1996,25.19879,25.1977,25.196396,25.194885,25.194065,25.192865,25.19195,25.190588,25.18959,25.188772,25.188604,25.188332,25.188217,25.188457,25.188437,25.187302,25.18511,25.182632,25.179062,25.175535,25.170109,25.164925,25.157694,25.15229,25.144384,25.138618,25.129036,25.121443,25.109785,25.100895,25.08728,25.075968,25.058537,25.04288,25.024033,25.00728,24.987972,24.969646,24.952494,24.93677,24.925627,24.914413,24.905512,24.897802,24.89511,24.891535,24.88865,24.885443,24.883781,24.884974,24.88862,24.895353,24.902603,24.914356,24.923328,24.929155,24.924349,24.906462,24.886751,24.88617,24.871832,24.832794,24.804617,24.818874,25.000328,25.780128,22.858871,17.846308,12.527339,9.892956
18.25225,22.771345,25.453577,25.76668,25.32988,25.386492,25.417416,25.409782,25.392859,25.380823,25.35906,25.340425,25.322336,25.315275,25.310461,25.31147,25.311743,25.311905,25.310959,25.30755,25.301453,25.292812,25.28516,25.275484,25.266645,25.257668,25.253325,25.246956,25.241861,25.232796,25.224976,25.21744,25.214575,25.21012,25.207245,25.204733,25.204157,25.204548,25.205404,25.204985,25.203812,25.202562,25.201477,25.201204,25.200674,25.199743,25.198746,25.198332,25.197668,25.197105,25.196203,25.195494,25.195137,25.19532,25.195421,25.195528,25.196102,25.196356,25.195501,25.193491,25.191132,25.187605,25.184124,25.178658,25.173365,25.165964,25.160433,25.15235,25.146442,25.136675,25.128967,25.117178,25.108223,25.094398,25.082853,25.065111,25.049192,25.030014,25.012959,24.993242,24.974617,24.957384,24.941679,24.93051,24.919283,24.910376,24.902702,24.90007,24.896517,24.893583,24.890379,24.888765,24.889847,24.893288,24.89968,24.906614,24.91796,24.926758,24.932943,24.928585,24.911137,24.890472,24.887976,24.868906,24.822556,24.791775,24.81139,24.9883,25.729488,22.963089,18.229116,12.928242,10.060967
18.430569,22.864017,25.444414,25.748274,25.319668,25.37083,25.399483,25.394783,25.379839,25.36714,25.344568,25.325428,25.306799,25.29949,25.294455,25.295471,25.295933,25.296528,25.296331,25.29382,25.288605,25.2808,25.273783,25.264843,25.256739,25.24847,25.244423,25.23848,25.233736,25.22521,25.217796,25.210697,25.208046,25.204052,25.201624,25.199743,25.19975,25.200935,25.202564,25.203032,25.202738,25.2023,25.20206,25.202497,25.20278,25.202448,25.20223,25.202408,25.202465,25.202347,25.201954,25.201517,25.201574,25.202051,25.202436,25.202677,25.203476,25.203924,25.203295,25.201437,25.199162,25.195625,25.192125,25.186577,25.181204,25.173662,25.168001,25.159756,25.15374,25.143915,25.136234,25.124447,25.115473,25.10156,25.089905,25.072023,25.055973,25.036596,25.01934,24.999382,24.980612,24.96341,24.947767,24.93658,24.925262,24.916248,24.908403,24.905655,24.901873,24.898737,24.895245,24.893435,24.894129,24.897211,24.903002,24.909397,24.919971,24.928295,24.934351,24.930544,24.91519,24.894703,24.888708,24.864113,24.812174,24.781595,24.810202,24.977373,25.665073,23.05888,18.627693,13.355801,10.248481
18.522038,22.910196,25.440128,25.737156,25.309767,25.35572,25.382341,25.380665,25.36721,25.352968,25.329472,25.310537,25.29203,25.284782,25.279842,25.280998,25.281788,25.282894,25.28353,25.282017,25.27786,25.271135,25.264977,25.257015,25.24983,25.24245,25.238827,25.233389,25.229004,25.221033,25.214052,25.207396,25.204939,25.201374,25.199358,25.198078,25.198633,25.2005,25.202797,25.204082,25.204638,25.205004,25.20562,25.206762,25.20788,25.20819,25.20879,25.20956,25.210321,25.210625,25.210682,25.210447,25.210787,25.211433,25.21194,25.212185,25.213036,25.213535,25.212994,25.211205,25.208961,25.2054,25.201859,25.196234,25.190784,25.183165,25.177462,25.169178,25.16313,25.153408,25.145899,25.134356,25.125559,25.111795,25.100195,25.082432,25.066465,25.047121,25.029839,25.00982,24.991034,24.97396,24.958408,24.947172,24.935656,24.926443,24.918264,24.91526,24.911058,24.90759,24.903631,24.901506,24.901585,24.904089,24.908884,24.914322,24.923462,24.930603,24.935352,24.93136,24.918415,24.898777,24.888485,24.859951,24.807753,24.780876,24.817905,24.96948,25.595345,23.144773,19.0182,13.784156,10.447251
18.572826,22.938505,25.444633,25.733389,25.302164,25.345493,25.37094,25.369505,25.356361,25.342123,25.318796,25.300093,25.281792,25.274624,25.2698,25.27107,25.27219,25.27376,25.275036,25.274313,25.271122,25.265427,25.260063,25.25299,25.246593,25.240065,25.236952,25.232084,25.228024,25.220554,25.213957,25.207712,25.205452,25.202139,25.200298,25.199387,25.200323,25.202679,25.205467,25.207354,25.208572,25.209625,25.210968,25.212666,25.214413,25.215206,25.216404,25.217606,25.218885,25.21951,25.219913,25.219837,25.220377,25.221127,25.221678,25.22189,25.22273,25.223227,25.222685,25.220901,25.218674,25.215117,25.211567,25.205872,25.200294,25.192577,25.186878,25.178606,25.172525,25.162891,25.155533,25.14432,25.135838,25.122362,25.110874,25.093315,25.077503,25.058294,25.041046,25.020964,25.002104,24.985111,24.969591,24.958252,24.946503,24.937073,24.928577,24.92533,24.920744,24.916979,24.912657,24.910324,24.90988,24.911825,24.915638,24.920097,24.927738,24.933533,24.936787,24.932049,24.919611,24.900303,24.887695,24.859606,24.813034,24.790564,24.828276,24.963268,25.538143,23.235092,19.38894,14.185484,10.631095
18.608229,22.953236,25.444006,25.725967,25.291513,25.332966,25.357174,25.355017,25.341768,25.328049,25.305378,25.287096,25.269213,25.262215,25.257563,25.258936,25.260376,25.262392,25.264254,25.264288,25.262102,25.257528,25.253036,25.24695,25.24143,25.235865,25.233374,25.22919,25.225513,25.21864,25.212507,25.20679,25.204803,25.201824,25.200188,25.199688,25.201035,25.203882,25.207153,25.209635,25.211525,25.213303,25.215437,25.217747,25.22023,25.221611,25.223566,25.225311,25.227274,25.22834,25.229246,25.22943,25.230263,25.231148,25.231787,25.231985,25.232819,25.2333,25.23276,25.230995,25.228819,25.225317,25.22181,25.21609,25.210411,25.202631,25.196981,25.188745,25.182632,25.173084,25.165873,25.155037,25.146935,25.133812,25.122492,25.105255,25.089727,25.070824,25.053757,25.033745,25.014917,24.998125,24.982702,24.971273,24.95926,24.94959,24.940722,24.937191,24.93215,24.928015,24.92327,24.920723,24.919659,24.920927,24.923532,24.926752,24.932487,24.936493,24.937662,24.931608,24.918818,24.899786,24.885824,24.860327,24.822178,24.805069,24.841541,24.956842,25.47647,23.331549,19.785677,14.632235,10.868056
18.649294,22.965849,25.434551,25.713926,25.281517,25.32141,25.344242,25.341639,25.328352,25.314959,25.292746,25.274786,25.25721,25.250334,25.245768,25.247162,25.248766,25.25104,25.25325,25.253765,25.252241,25.248426,25.244528,25.23913,25.234222,25.229328,25.227251,25.223526,25.220116,25.21366,25.207853,25.202526,25.200764,25.19809,25.196672,25.196531,25.198204,25.201437,25.205074,25.207998,25.21039,25.212694,25.215445,25.218245,25.221357,25.223278,25.22594,25.228195,25.23081,25.232298,25.2337,25.234154,25.235298,25.236334,25.237118,25.23735,25.23823,25.238737,25.238256,25.236568,25.234476,25.231062,25.227625,25.221954,25.216278,25.208519,25.20293,25.194744,25.188625,25.179148,25.172024,25.161427,25.153568,25.14068,25.12948,25.112501,25.097216,25.078594,25.061733,25.041857,25.023144,25.006584,24.991312,24.979855,24.967674,24.95785,24.948729,24.945015,24.939653,24.935244,24.93018,24.927462,24.92591,24.926634,24.928247,24.93045,24.934631,24.9372,24.936724,24.92963,24.916508,24.897696,24.883024,24.859226,24.826105,24.812586,24.84936,24.950699,25.428425,23.40127,20.079033,14.979016,11.080321
18.691616,22.97202,25.415356,25.692968,25.264507,25.302902,25.324465,25.32166,25.30876,25.29606,25.274632,25.257084,25.239971,25.23331,25.228912,25.23035,25.232141,25.234715,25.237402,25.238577,25.237877,25.235006,25.231884,25.22744,25.223415,25.219519,25.218052,25.215097,25.212196,25.206564,25.201422,25.196886,25.195574,25.193577,25.192667,25.193195,25.195387,25.19921,25.203358,25.206915,25.209991,25.212965,25.216496,25.219957,25.22395,25.22661,25.230265,25.233242,25.236828,25.23899,25.241219,25.242157,25.243856,25.245169,25.246258,25.246622,25.247618,25.248173,25.247776,25.246185,25.244213,25.240906,25.237528,25.231867,25.226166,25.218359,25.212755,25.204481,25.19824,25.18868,25.181568,25.171076,25.163357,25.150604,25.139498,25.122803,25.107845,25.089615,25.07308,25.053497,25.03506,25.01889,25.003881,24.992456,24.980104,24.970083,24.9606,24.956589,24.950737,24.945913,24.940401,24.937466,24.935362,24.9355,24.936102,24.937275,24.939802,24.94075,24.938278,24.929764,24.915756,24.897163,24.882795,24.861664,24.833565,24.823633,24.861773,24.945496,25.371763,23.472115,20.398043,15.369492,11.33819
18.716064,22.971685,25.398514,25.675077,25.24953,25.287157,25.308197,25.305515,25.293198,25.281183,25.260431,25.24316,25.226404,25.219938,25.2157,25.21719,25.219114,25.221899,25.22499,25.22672,25.22663,25.22446,25.221928,25.218258,25.214964,25.211914,25.210968,25.208715,25.206318,25.201519,25.197056,25.193317,25.192457,25.191162,25.190788,25.191969,25.194618,25.198946,25.203514,25.20761,25.21124,25.214725,25.21884,25.22282,25.22751,25.23075,25.235186,25.238733,25.243122,25.245861,25.248817,25.250196,25.252398,25.253963,25.255352,25.255863,25.256979,25.25756,25.257215,25.255676,25.253792,25.250536,25.247154,25.241436,25.235672,25.227758,25.222063,25.213604,25.207182,25.197449,25.190277,25.179728,25.171997,25.159237,25.148159,25.13164,25.116932,25.098993,25.082727,25.063435,25.04528,25.02944,25.014662,25.003294,24.990826,24.98065,24.970839,24.96654,24.960228,24.955053,24.94917,24.946077,24.943613,24.943407,24.943491,24.94414,24.94574,24.945679,24.941864,24.932253,24.917276,24.898811,24.885523,24.86669,24.841288,24.833223,24.872978,24.943611,25.332956,23.5123,20.597284,15.618419,11.507579
18.730791,22.960577,25.37546,25.651384,25.228739,25.265415,25.286102,25.28409,25.272982,25.26195,25.242205,25.225365,25.20917,25.203022,25.19908,25.20069,25.202858,25.205967,25.209621,25.212082,25.212826,25.21161,25.209892,25.207266,25.204943,25.203049,25.202852,25.201616,25.19993,25.19628,25.192722,25.19008,25.189861,25.189503,25.189804,25.19182,25.195051,25.200054,25.20517,25.209929,25.214224,25.218323,25.223125,25.227713,25.23319,25.237066,25.242386,25.24659,25.251932,25.255383,25.259245,25.261185,25.264036,25.26594,25.267735,25.268463,25.269762,25.270407,25.270153,25.268698,25.266947,25.263788,25.260424,25.254639,25.24879,25.240711,25.234875,25.22613,25.219423,25.209372,25.20204,25.191309,25.183489,25.170618,25.159506,25.143126,25.128666,25.11103,25.095057,25.076077,25.058249,25.04281,25.028336,25.017067,25.004517,24.994202,24.984072,24.979485,24.97269,24.967113,24.960812,24.957542,24.954676,24.954082,24.953571,24.953632,24.954182,24.952978,24.947607,24.936766,24.920826,24.902565,24.890238,24.873945,24.851927,24.846573,24.889011,24.943819,25.288328,23.557283,20.82549,15.911811,11.72026
18.727219,22.945265,25.35987,25.635916,25.214415,25.250496,25.271135,25.269842,25.259779,25.249458,25.230453,25.213936,25.198174,25.192278,25.188583,25.190313,25.192698,25.196047,25.200089,25.20304,25.204355,25.203804,25.20265,25.200726,25.199036,25.197924,25.198278,25.197765,25.19658,25.193699,25.19073,25.18883,25.18906,25.189312,25.190018,25.192549,25.196148,25.201588,25.207062,25.212217,25.21689,25.221352,25.226553,25.231482,25.237385,25.24158,25.247362,25.251932,25.25782,25.261688,25.266098,25.268389,25.271648,25.273775,25.27584,25.27672,25.27816,25.278866,25.278694,25.27731,25.275671,25.272594,25.269268,25.26345,25.257551,25.249348,25.243408,25.234446,25.22753,25.21721,25.209713,25.198792,25.190876,25.17787,25.166687,25.150322,25.13597,25.11846,25.102634,25.083801,25.066143,25.05093,25.036638,25.025446,25.01288,25.002516,24.992264,24.987556,24.980534,24.974745,24.968227,24.96487,24.961796,24.96099,24.96014,24.959858,24.959812,24.957972,24.95172,24.940212,24.923883,24.905811,24.893826,24.878927,24.859089,24.855791,24.90044,24.94583,25.263126,23.582977,20.956854,16.086329,11.855864
18.735655,22.932524,25.339556,25.614891,25.19534,25.230244,25.25142,25.25255,25.244919,25.235415,25.217382,25.201403,25.186357,25.18089,25.177612,25.179535,25.182228,25.18591,25.190485,25.194086,25.196115,25.196394,25.196007,25.195065,25.194267,25.194223,25.19528,25.195732,25.19525,25.193422,25.19124,25.190327,25.191156,25.192268,25.193588,25.196865,25.200989,25.207064,25.213045,25.218767,25.223963,25.228893,25.234608,25.239983,25.246445,25.251066,25.25747,25.26252,25.269169,25.27364,25.27883,25.281605,25.285444,25.287888,25.290365,25.291471,25.293076,25.293816,25.293734,25.29243,25.290897,25.287886,25.284555,25.278685,25.272757,25.264439,25.258364,25.249128,25.241955,25.231318,25.223623,25.212435,25.204334,25.19111,25.179827,25.163494,25.149307,25.132004,25.116417,25.097868,25.080547,25.065737,25.051826,25.04087,25.028437,25.018116,25.007782,25.002953,24.995628,24.989538,24.982664,24.979109,24.975626,24.974445,24.973095,24.97238,24.97158,24.968946,24.961601,24.94929,24.932877,24.914589,24.900839,24.885937,24.869389,24.86896,24.91586,24.947956,25.230982,23.602652,21.090647,16.277163,12.019108
18.74874,22.928484,25.326447,25.60078,25.18272,25.216562,25.238535,25.242353,25.237095,25.22802,25.210629,25.195076,25.18061,25.175505,25.172583,25.174667,25.177597,25.181509,25.186474,25.190517,25.192984,25.193779,25.19391,25.193663,25.193487,25.194174,25.195686,25.196781,25.19679,25.195686,25.194027,25.193764,25.19499,25.196705,25.198483,25.202295,25.206783,25.213303,25.219643,25.225756,25.231287,25.236513,25.242537,25.24819,25.255003,25.259893,25.26669,25.272041,25.279203,25.2841,25.289825,25.292933,25.297165,25.299835,25.302603,25.30388,25.30557,25.30629,25.306253,25.304993,25.303495,25.300482,25.297113,25.291199,25.285282,25.27691,25.270748,25.261335,25.254005,25.243166,25.23536,25.223963,25.215694,25.202291,25.190931,25.174616,25.160555,25.143398,25.127995,25.10969,25.092672,25.078205,25.064642,25.053942,25.041716,25.031513,25.021206,25.016335,25.008833,25.00254,24.99539,24.991646,24.98781,24.98632,24.98462,24.983648,24.982405,24.979319,24.971354,24.958601,24.942514,24.92376,24.9072,24.890907,24.876839,24.87837,24.925999,24.94942,25.212881,23.606056,21.146593,16.369537,12.112816
18.74568,22.911963,25.309366,25.583548,25.16638,25.198896,25.22143,25.227964,25.22515,25.216583,25.19989,25.184788,25.171007,25.166391,25.164001,25.1664,25.16978,25.174133,25.179768,25.184542,25.187714,25.1893,25.1902,25.190924,25.191618,25.193321,25.195486,25.197506,25.198208,25.198107,25.197166,25.197798,25.199564,25.202068,25.204401,25.20887,25.21379,25.22083,25.227564,25.234102,25.23999,25.245523,25.25187,25.257814,25.265003,25.270193,25.277435,25.283129,25.29088,25.296272,25.302618,25.306095,25.310745,25.313623,25.316677,25.318104,25.319841,25.320494,25.320446,25.319191,25.3177,25.31465,25.31119,25.305151,25.29918,25.290653,25.284311,25.274572,25.266958,25.255762,25.24774,25.235998,25.227472,25.213778,25.202286,25.185957,25.172037,25.155046,25.13986,25.12184,25.105188,25.091148,25.078037,25.067665,25.05574,25.045732,25.035547,25.030706,25.023098,25.01663,25.00925,25.005356,25.001194,24.9994,24.99735,24.99614,24.994497,24.991034,24.982548,24.96955,24.95418,24.935299,24.915804,24.898384,24.887989,24.891354,24.93572,24.956144,25.213987,23.641045,21.237503,16.495615,12.234802
18.734497,22.895206,25.297297,25.57209,25.155224,25.186804,25.209362,25.217274,25.21573,25.207441,25.191145,25.176306,25.163002,25.158787,25.156885,25.159626,25.163475,25.168272,25.174532,25.17994,25.183714,25.185946,25.18745,25.188921,25.190256,25.192709,25.195362,25.198063,25.199276,25.199888,25.199444,25.200703,25.202845,25.205862,25.208544,25.213415,25.218584,25.225914,25.232851,25.239597,25.24565,25.25132,25.25781,25.263884,25.271254,25.276594,25.284075,25.28995,25.298018,25.303692,25.310371,25.314041,25.318874,25.321821,25.324966,25.326433,25.328121,25.328674,25.328554,25.327248,25.32571,25.322588,25.319029,25.312862,25.306797,25.298101,25.291588,25.281567,25.27372,25.262218,25.254005,25.241985,25.233263,25.21934,25.207735,25.191376,25.177532,25.16063,25.145567,25.127699,25.111269,25.097496,25.084694,25.074558,25.062876,25.053045,25.043016,25.03826,25.030663,25.024136,25.016651,25.012676,25.008322,25.006338,25.004084,25.002754,25.000942,24.997385,24.988785,24.975906,24.961357,24.942745,24.921562,24.903732,24.896322,24.90052,24.939537,24.963743,25.231716,23.687641,21.315882,16.590181,12.321338
18.735035,22.882196,25.281954,25.557417,25.14228,25.172733,25.194853,25.203714,25.203152,25.195171,25.179361,25.164886,25.152243,25.148603,25.147432,25.150719,25.155285,25.160717,25.167814,25.174036,25.178596,25.181635,25.183903,25.18626,25.188335,25.191616,25.194801,25.198206,25.199944,25.201258,25.201283,25.203125,25.205616,25.209095,25.212069,25.217266,25.222628,25.230177,25.237257,25.244139,25.2503,25.256084,25.262695,25.26887,25.276386,25.28186,25.289541,25.295568,25.303898,25.309793,25.31673,25.320536,25.325478,25.32843,25.331572,25.333,25.334568,25.334976,25.33474,25.33334,25.331707,25.328482,25.32483,25.318531,25.312357,25.303473,25.296787,25.286503,25.278444,25.266665,25.258272,25.246021,25.237162,25.223078,25.211391,25.195017,25.181225,25.16438,25.149393,25.1316,25.11529,25.101692,25.089127,25.079205,25.067738,25.05805,25.048143,25.043451,25.035799,25.029148,25.021397,25.01717,25.012383,25.010027,25.007315,25.00567,25.003462,24.999681,24.990906,24.97823,24.964552,24.946548,24.924294,24.906853,24.903002,24.908659,24.942959,24.969315,25.240957,23.74442,21.439701,16.73867,12.440694
18.757109,22.88334,25.269161,25.544891,25.133121,25.16275,25.184156,25.193148,25.19288,25.185122,25.16972,25.15559,25.143572,25.140486,25.140047,25.14389,25.14917,25.155201,25.16303,25.169922,25.175121,25.178804,25.18168,25.184717,25.187328,25.191193,25.19475,25.198635,25.20072,25.202467,25.202755,25.204935,25.20764,25.211369,25.214483,25.219845,25.225288,25.232925,25.240053,25.246967,25.253153,25.25899,25.26566,25.271866,25.279444,25.28499,25.292765,25.298857,25.307283,25.313248,25.320236,25.324047,25.328932,25.33179,25.334795,25.33609,25.337467,25.337704,25.337309,25.335777,25.333992,25.330633,25.326887,25.320475,25.314188,25.30514,25.298328,25.28787,25.279694,25.267748,25.259235,25.246866,25.237967,25.22383,25.212118,25.195742,25.181976,25.165155,25.150183,25.132376,25.116068,25.10251,25.090042,25.080236,25.068901,25.059288,25.049427,25.044756,25.037024,25.030252,25.02221,25.017693,25.012444,25.00972,25.006563,25.004627,25.002066,24.998121,24.98931,24.976954,24.96405,24.94678,24.924202,24.907572,24.906666,24.913578,24.944176,24.97168,25.24268,23.8013,21.58019,16.902168,12.557482
18.811785,22.901512,25.254824,25.529854,25.124077,25.152908,25.173777,25.183167,25.183445,25.175982,25.161118,25.147442,25.136187,25.13374,25.134096,25.138514,25.144533,25.151169,25.159727,25.167255,25.173056,25.177341,25.18081,25.184523,25.187666,25.19213,25.196064,25.20046,25.202927,25.205149,25.205727,25.208298,25.21125,25.21531,25.218637,25.224249,25.229853,25.237675,25.244923,25.251947,25.25823,25.264177,25.270967,25.277258,25.284962,25.290638,25.298578,25.304781,25.31335,25.319418,25.326485,25.330303,25.335123,25.337866,25.340712,25.34186,25.343008,25.34304,25.34244,25.340738,25.338764,25.33522,25.331333,25.324764,25.31835,25.309126,25.302168,25.291513,25.283205,25.27107,25.262419,25.249905,25.240942,25.226723,25.214985,25.198624,25.184921,25.168179,25.153282,25.13554,25.119308,25.105862,25.09355,25.083912,25.072742,25.063227,25.053411,25.048737,25.040892,25.03399,25.025639,25.020828,25.015108,25.01201,25.008465,25.006327,25.003489,24.99943,24.99062,24.978605,24.966621,24.949955,24.926392,24.910082,24.912445,24.920582,24.946613,24.974327,25.241978,23.871397,21.76055,17.110006,12.699916
18.876106,22.925737,25.242493,25.516542,25.117416,25.145727,25.166142,25.175695,25.176338,25.16918,25.154856,25.14163,25.131126,25.129292,25.130398,25.13533,25.142015,25.149164,25.158325,25.166353,25.1726,25.177341,25.18128,25.185537,25.1891,25.194044,25.198298,25.203135,25.205938,25.208553,25.209354,25.21225,25.215437,25.2198,25.223341,25.22921,25.234991,25.243023,25.250422,25.257599,25.264013,25.2701,25.27703,25.283413,25.291256,25.297087,25.30519,25.311485,25.320131,25.326235,25.333286,25.337048,25.341692,25.344242,25.346825,25.347757,25.34861,25.34839,25.347528,25.3456,25.343365,25.339573,25.335503,25.328743,25.322172,25.312754,25.305641,25.294813,25.286406,25.27412,25.265348,25.252724,25.243715,25.229448,25.217705,25.20138,25.187752,25.171097,25.15627,25.138584,25.1224,25.10902,25.096794,25.08725,25.076157,25.06668,25.056843,25.052107,25.044125,25.0371,25.028494,25.023449,25.01738,25.014025,25.010284,25.008118,25.005205,25.00119,24.992565,24.981012,24.970083,24.953995,24.929224,24.912882,24.918253,24.927252,24.948452,24.97525,25.236515,23.945791,21.9621,17.344706,12.861279
18.91421,22.937046,25.233398,25.507334,25.112759,25.140804,25.16081,25.17025,25.171005,25.164106,25.150194,25.137287,25.127352,25.126005,25.127718,25.133076,25.140287,25.147842,25.157478,25.1659,25.17249,25.177574,25.18188,25.18656,25.190445,25.195776,25.200302,25.205519,25.208607,25.21155,25.21252,25.215687,25.219069,25.223692,25.227407,25.233482,25.239403,25.247597,25.25513,25.262442,25.268976,25.27517,25.282215,25.288675,25.296642,25.302614,25.310852,25.317198,25.325869,25.331968,25.338947,25.342619,25.347052,25.349375,25.351645,25.352325,25.35287,25.352406,25.35126,25.349077,25.346546,25.342491,25.338226,25.331264,25.324514,25.314878,25.307608,25.29661,25.288115,25.27569,25.26681,25.254076,25.245018,25.230717,25.21898,25.202694,25.189117,25.172518,25.157724,25.140041,25.123846,25.110458,25.098227,25.088676,25.077559,25.068054,25.058128,25.05331,25.04518,25.038036,25.029234,25.02403,25.017744,25.014257,25.010468,25.008366,25.005522,25.00165,24.993317,24.982294,24.972506,24.956894,24.930565,24.913818,24.922125,24.931967,24.94852,24.974047,25.229227,24.010023,22.140375,17.556513,13.012484
18.952522,22.94755,25.22521,25.498566,25.108109,25.13596,25.155588,25.164785,25.165594,25.159006,25.145605,25.133097,25.123825,25.123016,25.125347,25.131096,25.138811,25.14674,25.156801,25.165564,25.172436,25.177834,25.182518,25.187641,25.191845,25.197565,25.202389,25.208014,25.211412,25.214703,25.21584,25.219296,25.222906,25.227852,25.231798,25.238153,25.24428,25.252733,25.260485,25.268024,25.274755,25.281132,25.288336,25.294909,25.303019,25.30915,25.317509,25.323872,25.332487,25.338505,25.345306,25.348812,25.352915,25.354935,25.35679,25.357159,25.357332,25.356596,25.355139,25.352676,25.349815,25.34545,25.340979,25.333809,25.326868,25.317019,25.309597,25.298477,25.289955,25.277468,25.26853,25.255753,25.246695,25.23242,25.220726,25.20451,25.190998,25.174456,25.159678,25.141981,25.125734,25.112286,25.09997,25.090345,25.079134,25.06956,25.059504,25.054554,25.046288,25.039087,25.030195,25.024927,25.018589,25.015099,25.011477,25.009626,25.007038,25.00344,24.995571,24.985235,24.976604,24.961823,24.93515,24.918491,24.928598,24.93816,24.949924,24.973997,25.221357,24.082878,22.34261,17.803831,13.200676
18.982834,22.955925,25.219135,25.491453,25.103699,25.13136,25.150751,25.159788,25.1607,25.154404,25.141495,25.129402,25.120743,25.120392,25.123219,25.129248,25.137339,25.145548,25.155912,25.164907,25.171986,25.17762,25.182625,25.188122,25.192587,25.198627,25.203684,25.20964,25.213297,25.216866,25.218132,25.22182,25.225628,25.230858,25.23502,25.241653,25.247984,25.25671,25.264692,25.272474,25.279415,25.285994,25.293375,25.300064,25.3083,25.314552,25.322987,25.329351,25.337887,25.343805,25.35042,25.353764,25.357576,25.359348,25.360882,25.361015,25.360916,25.359985,25.358324,25.355679,25.352583,25.348003,25.343395,25.336098,25.329035,25.319061,25.311563,25.300417,25.291935,25.279488,25.270555,25.257824,25.24882,25.234623,25.222992,25.206842,25.193367,25.176859,25.16208,25.14436,25.128056,25.114521,25.10211,25.092428,25.081144,25.071518,25.061361,25.056301,25.047949,25.040741,25.031834,25.026548,25.02021,25.01675,25.013306,25.01169,25.00932,25.005943,24.99844,24.988638,24.980654,24.966822,24.941492,24.925676,24.935751,24.943974,24.952515,24.975904,25.21713,24.140991,22.500591,17.999695,13.355094
19.03252,22.972872,25.21286,25.483107,25.0991,25.126469,25.145624,25.15457,25.155636,25.149624,25.137262,25.125652,25.117672,25.117805,25.121122,25.127401,25.135857,25.144342,25.154978,25.16418,25.171448,25.177355,25.182735,25.188679,25.193443,25.19985,25.20519,25.21155,25.215519,25.219429,25.22085,25.224836,25.228905,25.23452,25.238977,25.245989,25.252605,25.261707,25.270004,25.278116,25.285322,25.292145,25.299715,25.306515,25.31486,25.321234,25.329721,25.336048,25.344454,25.350231,25.356596,25.359728,25.363165,25.364613,25.365742,25.365591,25.365152,25.363985,25.362087,25.359245,25.355898,25.351082,25.346315,25.338877,25.331703,25.32162,25.314043,25.30287,25.294428,25.282038,25.273134,25.260454,25.251507,25.237404,25.225851,25.209833,25.196466,25.180063,25.165344,25.147678,25.131372,25.117802,25.105305,25.095547,25.084167,25.074486,25.064228,25.059034,25.050673,25.043581,25.034883,25.02977,25.023695,25.020462,25.017544,25.016459,25.014568,25.01157,25.004642,24.995575,24.98841,24.975847,24.952528,24.93782,24.94733,24.95359,24.95858,24.980976,25.213886,24.212858,22.693323,18.246191,13.562265
19.077995,22.990557,25.209084,25.477415,25.096628,25.123747,25.142748,25.151695,25.15287,25.14698,25.134912,25.12359,25.116005,25.116405,25.119974,25.126371,25.135029,25.143675,25.154444,25.163742,25.171118,25.177206,25.18284,25.18909,25.194044,25.2007,25.206232,25.212872,25.217056,25.221197,25.22272,25.226917,25.231176,25.237064,25.241737,25.249014,25.255838,25.265207,25.273727,25.282051,25.289429,25.29639,25.304056,25.310896,25.319283,25.325726,25.33423,25.34052,25.348827,25.35452,25.360725,25.36372,25.366903,25.368116,25.368969,25.368626,25.36795,25.366611,25.364548,25.361582,25.358084,25.35312,25.348238,25.340698,25.333473,25.323336,25.315704,25.304491,25.296045,25.283657,25.274761,25.26209,25.253147,25.239079,25.22758,25.211683,25.19845,25.182184,25.167576,25.150026,25.13379,25.120264,25.10776,25.097952,25.086508,25.0768,25.066488,25.06121,25.052902,25.045967,25.037558,25.032698,25.026985,25.024036,25.021692,25.021141,25.019743,25.01707,25.010632,25.002123,24.995615,24.983898,24.96175,24.947615,24.956749,24.961697,24.964268,24.985771,25.21254,24.263021,22.826647,18.41998,13.7137785
19.133703,23.011202,25.205048,25.47092,25.093924,25.120703,25.13959,25.148666,25.150091,25.144382,25.132727,25.121798,25.114714,25.115437,25.119286,25.125774,25.134632,25.14343,25.154312,25.163694,25.171164,25.177446,25.183378,25.189978,25.195139,25.202076,25.20785,25.214853,25.21933,25.223791,25.225466,25.229984,25.234528,25.24083,25.245827,25.253504,25.26064,25.270414,25.279276,25.287945,25.29558,25.302761,25.31056,25.317448,25.325851,25.33234,25.340797,25.346985,25.355091,25.36062,25.366552,25.369331,25.372137,25.373034,25.373497,25.372898,25.371895,25.370327,25.36806,25.364948,25.361261,25.356121,25.3511,25.34345,25.336166,25.325972,25.318277,25.307041,25.298624,25.286287,25.277435,25.264822,25.255915,25.241924,25.230507,25.214767,25.201683,25.185572,25.171068,25.153627,25.137447,25.12393,25.111364,25.101463,25.089922,25.080173,25.06981,25.064442,25.056263,25.049603,25.041664,25.037191,25.032028,25.029501,25.027973,25.028164,25.02743,25.025206,25.019432,25.011702,25.006115,24.995596,24.975033,24.961779,24.970583,24.974176,24.974188,24.994299,25.211992,24.327803,22.997688,18.653225,13.932916
19.164124,23.021067,25.20306,25.467499,25.09248,25.119045,25.137907,25.147144,25.148808,25.14325,25.131891,25.121233,25.114487,25.115416,25.119423,25.125944,25.13489,25.143757,25.15468,25.164087,25.171589,25.177967,25.18406,25.190855,25.19612,25.203215,25.209137,25.216377,25.221054,25.225746,25.227543,25.232302,25.237062,25.24368,25.248922,25.256908,25.264275,25.274366,25.283497,25.292442,25.300287,25.30764,25.315535,25.32246,25.330853,25.337343,25.345724,25.351799,25.359715,25.365095,25.370796,25.373404,25.375927,25.376596,25.376783,25.376001,25.374775,25.373053,25.370657,25.367456,25.363651,25.358404,25.35331,25.345602,25.338282,25.32805,25.32033,25.309103,25.30073,25.288464,25.279665,25.267128,25.25827,25.244362,25.233013,25.21737,25.204365,25.188326,25.173853,25.156446,25.140257,25.126696,25.114046,25.104057,25.092438,25.082653,25.072258,25.066837,25.058784,25.052341,25.04476,25.040571,25.035803,25.033575,25.0326,25.03328,25.032984,25.031052,25.025717,25.018522,25.013577,25.003902,24.984432,24.97186,24.98055,24.983469,24.982143,25.001143,25.212177,24.369629,23.107775,18.81056,14.091164
19.241617,23.05403,25.199768,25.460611,25.09048,25.116611,25.135523,25.145224,25.147383,25.141985,25.13102,25.120745,25.11438,25.115463,25.119528,25.125973,25.134926,25.143826,25.154724,25.164124,25.17166,25.178192,25.184534,25.191626,25.197054,25.204372,25.21049,25.218039,25.222967,25.227953,25.229897,25.234957,25.239983,25.246986,25.252523,25.260881,25.268522,25.278976,25.288406,25.297644,25.305706,25.313232,25.321205,25.328117,25.33645,25.342909,25.351177,25.357113,25.364803,25.370008,25.375446,25.377865,25.38007,25.380487,25.38036,25.379358,25.377857,25.375952,25.373398,25.37009,25.366138,25.36075,25.355547,25.347746,25.340368,25.33008,25.322313,25.311083,25.302753,25.290565,25.281834,25.269379,25.260569,25.246733,25.235441,25.219894,25.206972,25.191017,25.176619,25.15931,25.143198,25.129667,25.117018,25.107012,25.095396,25.085648,25.075296,25.069838,25.062008,25.055914,25.04891,25.045181,25.041077,25.03936,25.03933,25.04085,25.041365,25.039999,25.035471,25.029177,25.025278,25.016863,24.998789,24.987343,24.996294,24.99939,24.997696,25.015669,25.216345,24.431522,23.26532,19.038074,14.325146
19.321527,23.091114,25.197052,25.454239,25.089132,25.114862,25.133863,25.144068,25.14668,25.141367,25.130657,25.12066,25.114496,25.115593,25.119581,25.12589,25.134771,25.14365,25.154478,25.163836,25.171394,25.17805,25.184582,25.191895,25.197445,25.204922,25.211166,25.218916,25.22401,25.229185,25.23123,25.236475,25.241665,25.248905,25.254623,25.263205,25.271011,25.28167,25.291256,25.300648,25.308807,25.316414,25.324398,25.331266,25.339521,25.345926,25.354105,25.359959,25.367516,25.372612,25.37791,25.38023,25.382275,25.38256,25.382261,25.38113,25.37947,25.377453,25.374804,25.371435,25.367397,25.361917,25.356632,25.348759,25.341335,25.331007,25.323204,25.311968,25.303658,25.291515,25.282827,25.270418,25.261627,25.24782,25.236547,25.221033,25.208149,25.192244,25.177906,25.160706,25.144707,25.131264,25.118692,25.108751,25.097218,25.087559,25.07729,25.071833,25.064192,25.058372,25.051823,25.048458,25.04489,25.043587,25.044325,25.04654,25.047743,25.04688,25.043041,25.03748,25.034405,25.02691,25.009705,24.999165,25.008617,25.012688,25.011892,25.029541,25.222277,24.476463,23.375658,19.201101,14.499259
19.444635,23.148462,25.191689,25.443905,25.087273,25.112541,25.131618,25.142397,25.145573,25.140388,25.130056,25.12045,25.114634,25.115849,25.119884,25.126146,25.135077,25.144024,25.154865,25.164257,25.171917,25.178785,25.185587,25.193218,25.198961,25.206697,25.21315,25.221224,25.22658,25.232077,25.234312,25.23989,25.24535,25.252987,25.25901,25.267967,25.276054,25.287064,25.296928,25.306599,25.314957,25.322723,25.330769,25.337608,25.345774,25.352123,25.36018,25.365923,25.37329,25.378235,25.38333,25.385519,25.387344,25.387453,25.386906,25.38559,25.383696,25.381517,25.378717,25.375237,25.37106,25.365454,25.360065,25.352114,25.34465,25.334297,25.326477,25.315264,25.307,25.294943,25.286339,25.274006,25.265257,25.251505,25.240273,25.224823,25.212004,25.196175,25.181923,25.164856,25.148993,25.135658,25.123182,25.11331,25.101858,25.092274,25.082058,25.076563,25.069092,25.06355,25.05744,25.054415,25.051357,25.050468,25.05201,25.054953,25.056847,25.056465,25.053335,25.048557,25.046383,25.039925,25.023676,25.014261,25.024452,25.030066,25.030819,25.048437,25.231949,24.529663,23.501131,19.404387,14.74144
19.553825,23.199854,25.186247,25.43435,25.0856,25.11059,25.129663,25.140724,25.144207,25.139133,25.129086,25.119768,25.114239,25.115576,25.11972,25.126017,25.135054,25.144112,25.15503,25.1645,25.172293,25.179369,25.186401,25.194302,25.200226,25.208208,25.21487,25.22325,25.22884,25.234646,25.237072,25.242958,25.248663,25.256653,25.262949,25.272243,25.28058,25.291906,25.302025,25.311947,25.320494,25.328423,25.336546,25.34339,25.35151,25.357828,25.365808,25.371475,25.37871,25.383541,25.388498,25.390608,25.392298,25.39229,25.391573,25.39012,25.38806,25.385754,25.382826,25.379242,25.374945,25.369234,25.363773,25.355774,25.348288,25.337936,25.330128,25.318962,25.310755,25.298801,25.290277,25.278038,25.269339,25.255646,25.244452,25.229061,25.21629,25.200521,25.186333,25.169365,25.153608,25.14036,25.127972,25.11818,25.106813,25.097288,25.08711,25.081593,25.07422,25.068844,25.062967,25.060106,25.057318,25.056662,25.05867,25.062044,25.06433,25.064217,25.061506,25.057201,25.055567,25.049738,25.034018,25.02541,25.036276,25.04338,25.04578,25.063719,25.241308,24.563799,23.57596,19.544024,14.931602
19.68701,23.261772,25.17873,25.421432,25.082071,25.106794,25.125732,25.136753,25.140327,25.135403,25.125675,25.116667,25.111435,25.112886,25.1171,25.123379,25.132492,25.14165,25.152632,25.162184,25.17013,25.177479,25.184843,25.193155,25.19937,25.207754,25.21476,25.223623,25.229582,25.235851,25.238554,25.244886,25.250937,25.259415,25.266077,25.27584,25.284523,25.296291,25.306765,25.317057,25.325888,25.334057,25.34233,25.349236,25.357355,25.363665,25.371582,25.377184,25.38429,25.389004,25.393808,25.395823,25.397375,25.397266,25.39637,25.394758,25.39251,25.390055,25.386969,25.383244,25.378767,25.37289,25.367313,25.359232,25.351698,25.341347,25.333567,25.322514,25.314438,25.302687,25.294312,25.282263,25.273674,25.26011,25.248983,25.23366,25.22092,25.205208,25.19109,25.174221,25.158588,25.14545,25.133215,25.123589,25.11243,25.10307,25.09307,25.08763,25.080511,25.075417,25.069948,25.067371,25.06505,25.064783,25.067493,25.0715,25.074419,25.074781,25.072727,25.069105,25.06819,25.063185,25.048199,25.04063,25.052322,25.06118,25.065508,25.083637,25.25371,24.606388,23.668156,19.72015,15.17608
19.808683,23.318874,25.172302,25.4098,25.078745,25.10332,25.121988,25.132545,25.135853,25.131027,25.121508,25.112688,25.107641,25.10916,25.113398,25.11965,25.12882,25.138073,25.149132,25.158802,25.166912,25.174543,25.18224,25.19098,25.197512,25.206335,25.213696,25.223057,25.229372,25.236094,25.23907,25.245813,25.252155,25.261053,25.268023,25.278175,25.287146,25.299269,25.310026,25.32063,25.329706,25.338083,25.346506,25.353495,25.361668,25.367998,25.375914,25.3815,25.38855,25.393204,25.397932,25.399902,25.401398,25.401253,25.400263,25.398544,25.396172,25.393606,25.390396,25.386541,25.381908,25.375877,25.37019,25.362028,25.35444,25.344091,25.336344,25.325415,25.317472,25.305922,25.2977,25.285843,25.277372,25.263948,25.252895,25.237633,25.224918,25.20926,25.195215,25.178446,25.162941,25.149925,25.137875,25.128452,25.117552,25.108387,25.098618,25.093307,25.086458,25.081627,25.07652,25.074188,25.072273,25.072355,25.075644,25.080158,25.083626,25.084414,25.08291,25.079836,25.079464,25.075083,25.060654,25.053953,25.06642,25.076754,25.082634,25.100832,25.26513,24.638521,23.733997,19.860828,15.387551
19.956415,23.390375,25.167097,25.398163,25.076817,25.101208,25.119528,25.129469,25.132349,25.12755,25.118158,25.109503,25.104588,25.106148,25.110386,25.116615,25.125868,25.13526,25.14645,25.15629,25.164639,25.17262,25.180708,25.189934,25.196835,25.206131,25.213858,25.22371,25.23037,25.237528,25.24077,25.247877,25.254463,25.263723,25.270964,25.281443,25.290646,25.30304,25.314013,25.324856,25.33413,25.342669,25.3512,25.358248,25.36646,25.37284,25.380795,25.386387,25.39343,25.39807,25.40279,25.40476,25.406244,25.406075,25.405016,25.40321,25.400719,25.398039,25.3947,25.390717,25.385927,25.37975,25.373945,25.365696,25.358059,25.347708,25.339987,25.329157,25.321312,25.309925,25.301834,25.290133,25.281748,25.268429,25.257442,25.242258,25.229609,25.21405,25.200127,25.183529,25.168232,25.155407,25.143599,25.134407,25.12378,25.114809,25.10525,25.10004,25.093403,25.088781,25.083965,25.081833,25.080273,25.080654,25.08446,25.08943,25.093403,25.094585,25.093588,25.091007,25.091148,25.087364,25.073442,25.067652,25.081078,25.093029,25.100456,25.118732,25.27752,24.66962,23.795124,20.002165,15.610456
20.103281,23.46174,25.163013,25.387568,25.07566,25.099916,25.117748,25.126747,25.128931,25.124138,25.11481,25.106253,25.101429,25.103037,25.107307,25.113562,25.12295,25.13253,25.143932,25.15402,25.162676,25.171068,25.179567,25.189308,25.196613,25.206438,25.214579,25.224964,25.23199,25.239622,25.24317,25.250656,25.257458,25.267017,25.274452,25.285162,25.294508,25.30705,25.318127,25.329117,25.338528,25.347181,25.3558,25.362892,25.37116,25.37761,25.385626,25.391249,25.398321,25.402973,25.407734,25.409742,25.411264,25.411106,25.410034,25.408188,25.40564,25.402891,25.399458,25.395382,25.39049,25.384212,25.378317,25.369987,25.362291,25.351923,25.344215,25.333439,25.325642,25.314363,25.306372,25.2948,25.286499,25.273283,25.262371,25.247292,25.23474,25.219318,25.205547,25.189142,25.174067,25.161453,25.149897,25.140944,25.130594,25.121819,25.112486,25.10741,25.101011,25.096598,25.092064,25.090124,25.088886,25.089529,25.093733,25.09903,25.103376,25.10484,25.104195,25.101952,25.102434,25.099087,25.085548,25.080568,25.094963,25.108276,25.11676,25.134815,25.288616,24.696747,23.847534,20.135523,15.830816
20.226746,23.520584,25.158669,25.377817,25.073996,25.098156,25.115433,25.123371,25.124807,25.120066,25.110836,25.102373,25.097683,25.099396,25.10379,25.110144,25.119736,25.129543,25.141203,25.151566,25.160542,25.169327,25.178217,25.188444,25.196135,25.206503,25.215092,25.22607,25.233501,25.241686,25.24561,25.25355,25.260612,25.270483,25.278088,25.28901,25.298483,25.311138,25.322292,25.333406,25.342947,25.351719,25.36044,25.367592,25.375923,25.382435,25.390505,25.396147,25.40323,25.407877,25.412657,25.4147,25.416262,25.416119,25.415052,25.413195,25.410625,25.407848,25.404367,25.400229,25.395283,25.388947,25.382984,25.374586,25.366827,25.356413,25.348698,25.33793,25.33014,25.318914,25.31099,25.299526,25.291319,25.278212,25.267365,25.25239,25.239927,25.224636,25.210983,25.194714,25.179773,25.167303,25.155937,25.14717,25.137056,25.128443,25.119337,25.114431,25.10833,25.104162,25.099966,25.098248,25.097342,25.09824,25.102795,25.108345,25.112959,25.114613,25.114223,25.11224,25.112955,25.109947,25.096764,25.0925,25.10774,25.12215,25.131363,25.149046,25.297998,24.722635,23.899502,20.264793,16.04129
20.350672,23.578423,25.155191,25.368732,25.072823,25.096964,25.11365,25.120335,25.12088,25.116217,25.107063,25.098656,25.094059,25.09586,25.100348,25.10678,25.116566,25.12661,25.138542,25.14922,25.158556,25.167776,25.177078,25.187817,25.19592,25.206875,25.215952,25.227558,25.235394,25.24414,25.248455,25.25684,25.264126,25.274227,25.281921,25.292955,25.302477,25.315138,25.326271,25.33743,25.347048,25.355896,25.364689,25.371887,25.380268,25.386831,25.394943,25.40059,25.407667,25.412298,25.417088,25.419167,25.42077,25.420658,25.419619,25.417784,25.415232,25.412458,25.408957,25.40479,25.399834,25.393482,25.38748,25.379025,25.37121,25.36077,25.35306,25.342314,25.33453,25.32338,25.315544,25.304249,25.296179,25.283247,25.27251,25.257715,25.245403,25.23031,25.216835,25.200752,25.186005,25.173733,25.162613,25.154076,25.144253,25.13586,25.127066,25.122398,25.116676,25.112816,25.109034,25.10759,25.107069,25.10824,25.113123,25.118883,25.123709,25.125486,25.125254,25.123405,25.12421,25.1214,25.108488,25.104834,25.120874,25.135965,25.145176,25.1618,25.305155,24.749266,23.957098,20.406988,16.270264
20.440283,23.619904,25.153788,25.363197,25.072859,25.097038,25.113302,25.119001,25.11882,25.114183,25.105019,25.096577,25.091934,25.093706,25.098131,25.104527,25.114353,25.124506,25.136578,25.147438,25.15701,25.166534,25.176123,25.187222,25.195612,25.206968,25.216381,25.228388,25.236462,25.24554,25.250088,25.258698,25.26607,25.276243,25.283936,25.294964,25.304451,25.317036,25.328094,25.339222,25.348846,25.357693,25.366497,25.373697,25.382097,25.38868,25.396797,25.402435,25.409492,25.414104,25.4189,25.421003,25.422632,25.42254,25.421532,25.419716,25.417183,25.414417,25.410898,25.406713,25.401758,25.395397,25.389366,25.380875,25.373028,25.362581,25.354897,25.3442,25.336449,25.32539,25.317654,25.30652,25.298592,25.285831,25.275217,25.260597,25.24844,25.233536,25.220238,25.204351,25.18981,25.17775,25.166883,25.158573,25.149036,25.140871,25.13238,25.127928,25.122538,25.118933,25.115501,25.114286,25.114086,25.115475,25.120617,25.126534,25.131523,25.133387,25.133236,25.131428,25.132238,25.129507,25.11674,25.11343,25.129997,25.145344,25.154196,25.169666,25.308535,24.768297,24.001318,20.513342,16.43824
20.539518,23.664207,25.15283,25.357122,25.072504,25.09679,25.11286,25.117727,25.117018,25.112526,25.103533,25.095188,25.090675,25.092533,25.097027,25.103472,25.11345,25.123802,25.136112,25.147255,25.157167,25.167082,25.177008,25.18851,25.197237,25.209034,25.218811,25.23123,25.23953,25.248947,25.253754,25.262589,25.270027,25.280226,25.287874,25.298853,25.308266,25.3207,25.331617,25.34267,25.352278,25.361116,25.369934,25.37714,25.385557,25.392172,25.400295,25.405905,25.412916,25.417486,25.422268,25.42439,25.426033,25.425953,25.424988,25.423223,25.420752,25.418022,25.414526,25.410364,25.405476,25.399181,25.39318,25.384705,25.376871,25.366482,25.35888,25.348286,25.34059,25.329678,25.322094,25.311193,25.30345,25.290932,25.28049,25.266138,25.254208,25.239569,25.226503,25.210882,25.196613,25.184826,25.174242,25.166155,25.156889,25.148947,25.140741,25.136477,25.13138,25.127998,25.124895,25.123917,25.124023,25.125607,25.130945,25.136944,25.14203,25.143919,25.143751,25.141861,25.142527,25.139711,25.12697,25.12387,25.140965,25.155993,25.163393,25.176748,25.310226,24.789282,24.053251,20.63952,16.637474
20.606821,23.693607,25.152262,25.3527,25.071676,25.096083,25.112257,25.116812,25.116009,25.111723,25.103008,25.09487,25.09063,25.092665,25.097376,25.103954,25.114157,25.124722,25.137281,25.148672,25.158873,25.16908,25.179243,25.191006,25.199944,25.21202,25.222017,25.234676,25.243097,25.252718,25.257708,25.266703,25.274172,25.284382,25.291998,25.302937,25.3123,25.324621,25.33543,25.346424,25.356028,25.36488,25.37372,25.380941,25.389383,25.39604,25.40418,25.409765,25.416733,25.42127,25.426031,25.428162,25.429798,25.42971,25.428776,25.42706,25.424644,25.42196,25.418499,25.414381,25.409595,25.403412,25.397469,25.389053,25.381271,25.370964,25.36344,25.352938,25.345285,25.334484,25.327017,25.316288,25.308666,25.296322,25.28601,25.271858,25.260101,25.245659,25.232758,25.217327,25.203238,25.19162,25.18119,25.173195,25.164026,25.156164,25.148054,25.143847,25.138836,25.135523,25.13255,25.131693,25.13195,25.133617,25.139011,25.145006,25.150099,25.151974,25.151752,25.149755,25.150255,25.1473,25.134516,25.131458,25.148905,25.163376,25.169157,25.1806,25.310425,24.80263,24.087585,20.725292,16.774368
20.672346,23.718822,25.152063,25.348242,25.070301,25.094816,25.11127,25.11573,25.115038,25.11101,25.102695,25.09486,25.091017,25.09331,25.098288,25.105019,25.1155,25.126345,25.139215,25.15092,25.1615,25.172113,25.182608,25.194754,25.203999,25.216478,25.226809,25.23981,25.248394,25.258291,25.263523,25.272713,25.28022,25.290417,25.297958,25.308817,25.318096,25.330244,25.340893,25.351793,25.361368,25.370218,25.379084,25.38632,25.39478,25.401463,25.409586,25.415125,25.422003,25.42646,25.431162,25.433289,25.434933,25.434864,25.434008,25.432383,25.430092,25.427507,25.424124,25.420078,25.41542,25.409374,25.403513,25.395187,25.38748,25.377304,25.369907,25.35957,25.35201,25.341404,25.334118,25.323652,25.316221,25.304146,25.294031,25.280174,25.268656,25.254484,25.241812,25.226658,25.212835,25.201477,25.191278,25.183441,25.174458,25.166758,25.15883,25.154732,25.149878,25.146673,25.143898,25.143206,25.143625,25.145351,25.15074,25.156643,25.161613,25.163319,25.162834,25.160501,25.160587,25.157251,25.144266,25.141045,25.15869,25.172058,25.175356,25.18424,25.309574,24.819714,24.13301,20.835691,16.94784
20.701185,23.726969,25.152212,25.346071,25.069136,25.093718,25.110466,25.115059,25.11458,25.110708,25.102667,25.095049,25.09148,25.093943,25.099072,25.105871,25.116516,25.127537,25.140585,25.152483,25.163305,25.1742,25.184937,25.19736,25.206831,25.219612,25.230194,25.243464,25.252165,25.262257,25.267653,25.27697,25.284494,25.294664,25.302134,25.312914,25.322115,25.334131,25.344667,25.355484,25.36503,25.373869,25.382746,25.389997,25.398462,25.405144,25.41324,25.41874,25.42554,25.429926,25.434568,25.436686,25.438349,25.438322,25.437542,25.436003,25.433826,25.431337,25.428032,25.424038,25.419455,25.413485,25.407679,25.399416,25.391752,25.381664,25.374363,25.364157,25.356678,25.346231,25.33908,25.328817,25.321539,25.30967,25.29971,25.286058,25.27471,25.260729,25.248217,25.233263,25.219646,25.208475,25.19847,25.190771,25.18196,25.174421,25.166683,25.162691,25.157986,25.15489,25.152283,25.151714,25.152233,25.153969,25.159311,25.16511,25.169907,25.171392,25.170593,25.167902,25.167568,25.163843,25.150629,25.147152,25.164759,25.17719,25.17864,25.18584,25.308413,24.830887,24.163513,20.907274,17.058128
20.707687,23.719606,25.153713,25.346266,25.068678,25.092905,25.10972,25.114672,25.114616,25.110943,25.103258,25.095943,25.092777,25.095507,25.100883,25.107803,25.11872,25.13002,25.143377,25.155592,25.166803,25.17813,25.189247,25.202097,25.2119,25.22508,25.235973,25.24954,25.258354,25.268642,25.274202,25.283657,25.291195,25.301355,25.30878,25.319523,25.328688,25.340609,25.351046,25.361788,25.371271,25.38005,25.388851,25.396038,25.404398,25.410967,25.418873,25.424212,25.430786,25.435005,25.439474,25.441513,25.443132,25.443132,25.442436,25.44101,25.438978,25.436619,25.433416,25.42951,25.425045,25.419203,25.413507,25.405397,25.397884,25.388039,25.380959,25.371054,25.363789,25.353668,25.346766,25.336828,25.32976,25.318188,25.30845,25.29509,25.28396,25.27022,25.257912,25.243233,25.229885,25.218952,25.209166,25.201622,25.192993,25.18563,25.178043,25.174105,25.169458,25.166403,25.163864,25.163363,25.163874,25.16552,25.170675,25.176249,25.180744,25.181906,25.180645,25.177439,25.176497,25.172209,25.158735,25.154772,25.171928,25.182707,25.181517,25.186512,25.30543,24.845707,24.205944,21.007486,17.21237
20.684845,23.69931,25.15588,25.349066,25.069326,25.092937,25.10952,25.114857,25.115202,25.111647,25.104197,25.097095,25.09423,25.09717,25.102743,25.109764,25.120897,25.132425,25.146038,25.15851,25.170021,25.181679,25.193096,25.20627,25.216318,25.229763,25.240847,25.254576,25.263433,25.2738,25.279432,25.28894,25.296482,25.30665,25.314083,25.324846,25.33403,25.345945,25.356354,25.367064,25.376488,25.385181,25.393862,25.400955,25.409153,25.415564,25.423237,25.428392,25.434725,25.438793,25.443079,25.445015,25.446558,25.446564,25.445911,25.44456,25.442627,25.440351,25.437225,25.433386,25.429007,25.423271,25.417667,25.409714,25.40236,25.392767,25.385893,25.376284,25.369226,25.359404,25.352713,25.343029,25.336102,25.324743,25.315165,25.302006,25.291018,25.277433,25.265257,25.25077,25.23761,25.226828,25.217163,25.2097,25.20116,25.19389,25.18634,25.182365,25.17765,25.174536,25.171932,25.171392,25.17178,25.173286,25.178207,25.183561,25.187782,25.188686,25.187065,25.183464,25.182062,25.177353,25.163725,25.15931,25.175846,25.185196,25.182098,25.185665,25.302242,24.855352,24.235245,21.077065,17.319214
20.636566,23.663025,25.160936,25.35608,25.072119,25.094328,25.109987,25.115662,25.116434,25.113033,25.105907,25.099104,25.096655,25.099886,25.105742,25.112913,25.124367,25.136217,25.150177,25.162996,25.174908,25.18701,25.19884,25.212456,25.222837,25.236658,25.248026,25.262012,25.270966,25.281471,25.287228,25.29682,25.304373,25.314524,25.321918,25.332655,25.341803,25.353622,25.36391,25.374504,25.383804,25.392359,25.400887,25.407879,25.415924,25.422197,25.429667,25.434658,25.440794,25.444735,25.448881,25.45075,25.452284,25.452347,25.451805,25.450567,25.44878,25.446619,25.44359,25.43981,25.435501,25.429842,25.42431,25.416483,25.409262,25.39988,25.393183,25.383818,25.376934,25.367367,25.360865,25.3514,25.344599,25.33347,25.324083,25.311201,25.30044,25.28711,25.275171,25.261015,25.248173,25.237646,25.228193,25.220867,25.21246,25.205315,25.197803,25.19376,25.188915,25.1857,25.18296,25.182331,25.182486,25.18375,25.188276,25.193264,25.197016,25.197485,25.195282,25.191067,25.188965,25.183613,25.169703,25.16463,25.180378,25.187853,25.182161,25.183945,25.29773,24.867443,24.272343,21.168928,17.463326
20.579718,23.62516,25.166952,25.364779,25.07616,25.09684,25.111336,25.117186,25.118246,25.114956,25.108076,25.101503,25.099379,25.102848,25.108929,25.116228,25.127945,25.140059,25.154299,25.167383,25.179586,25.192009,25.204145,25.218088,25.228708,25.242807,25.254387,25.268572,25.277597,25.288214,25.294054,25.303709,25.31126,25.321383,25.32872,25.33939,25.348478,25.360174,25.370325,25.380777,25.389942,25.398355,25.406754,25.41367,25.42163,25.427826,25.435196,25.440111,25.446165,25.450062,25.45417,25.456026,25.457603,25.457747,25.457306,25.456158,25.454483,25.452402,25.449436,25.445683,25.441381,25.43573,25.43022,25.422438,25.415264,25.405964,25.399338,25.390074,25.383255,25.373783,25.367353,25.357971,25.351215,25.340204,25.33095,25.31826,25.307684,25.294569,25.282837,25.268965,25.2564,25.24609,25.236803,25.229591,25.22128,25.21422,25.206705,25.20257,25.197567,25.194237,25.191322,25.190569,25.190456,25.191458,25.195574,25.200195,25.203468,25.203499,25.200739,25.19596,25.193243,25.18732,25.173132,25.16749,25.182545,25.188526,25.180809,25.181385,25.293354,24.87587,24.299784,21.236843,17.569323
20.503128,23.575651,25.176401,25.377676,25.082575,25.101324,25.114433,25.120617,25.122099,25.118927,25.112328,25.106028,25.104298,25.108057,25.114418,25.121876,25.133919,25.146366,25.160969,25.174385,25.186947,25.199745,25.212229,25.226534,25.23741,25.251797,25.263592,25.277971,25.28706,25.297777,25.303694,25.313398,25.320936,25.330997,25.338251,25.34881,25.357794,25.369326,25.379303,25.38956,25.398527,25.40675,25.41497,25.42177,25.4296,25.435677,25.442902,25.447714,25.45366,25.457495,25.461546,25.46338,25.465004,25.465235,25.464918,25.46387,25.462318,25.460318,25.457407,25.453667,25.449358,25.443708,25.43821,25.430485,25.423374,25.414183,25.407656,25.398525,25.3918,25.382448,25.376091,25.366806,25.360113,25.349243,25.340136,25.327648,25.317255,25.30437,25.29287,25.279312,25.267042,25.256954,25.247847,25.240772,25.232578,25.225624,25.2181,25.213844,25.20865,25.205177,25.20203,25.201097,25.200575,25.201168,25.204659,25.208721,25.211237,25.210573,25.206926,25.201294,25.197693,25.190983,25.176405,25.169931,25.18395,25.187754,25.177105,25.176132,25.285963,24.887035,24.338625,21.32363,17.696445
20.432873,23.530977,25.185194,25.389711,25.088884,25.106195,25.118315,25.124847,25.12678,25.123777,25.117489,25.111458,25.110117,25.114155,25.120798,25.12841,25.140743,25.153475,25.16838,25.182064,25.194891,25.207945,25.220663,25.235197,25.246233,25.260786,25.272705,25.287188,25.296305,25.307066,25.313025,25.322744,25.330263,25.340258,25.347427,25.357876,25.366755,25.378143,25.387966,25.398039,25.406815,25.414845,25.422886,25.42956,25.437256,25.443213,25.450298,25.45502,25.460863,25.464642,25.468634,25.470438,25.472069,25.47235,25.4721,25.471111,25.46963,25.467669,25.464785,25.461044,25.456718,25.45106,25.445574,25.437902,25.430853,25.421762,25.415321,25.40631,25.399673,25.390419,25.384108,25.374884,25.36823,25.357458,25.348452,25.336098,25.325829,25.313112,25.301783,25.288452,25.276388,25.266441,25.257435,25.250439,25.242296,25.235392,25.22779,25.223387,25.217957,25.214321,25.210905,25.20976,25.208792,25.208952,25.211796,25.215288,25.217035,25.21567,25.211145,25.204695,25.200256,25.19281,25.177887,25.170582,25.183426,25.185232,25.172247,25.169956,25.277214,24.897734,24.379417,21.403662,17.802555
20.359808,23.483091,25.19246,25.400576,25.094423,25.110695,25.122128,25.129023,25.131504,25.128824,25.123037,25.117378,25.116556,25.120945,25.127958,25.135778,25.14845,25.16148,25.17671,25.19066,25.20375,25.21705,25.229988,25.244734,25.255907,25.27061,25.28265,25.297237,25.306393,25.317207,25.323208,25.332956,25.340471,25.350435,25.35755,25.367926,25.376728,25.387999,25.397686,25.40759,25.416172,25.42399,25.431808,25.43832,25.44583,25.451641,25.458538,25.463127,25.468819,25.472519,25.476404,25.47814,25.479727,25.480017,25.479795,25.478851,25.477417,25.475492,25.472647,25.468927,25.464607,25.458971,25.453535,25.445969,25.439026,25.430096,25.423784,25.414948,25.408447,25.399342,25.39311,25.383972,25.37736,25.366692,25.357788,25.345577,25.33543,25.32287,25.3117,25.2986,25.286732,25.27691,25.26796,25.260992,25.252836,25.245934,25.23817,25.233534,25.227758,25.22389,25.220112,25.218702,25.21722,25.216911,25.219067,25.221983,25.222965,25.22092,25.21555,25.208294,25.203007,25.19479,25.179527,25.171276,25.182634,25.182352,25.167337,25.163406,25.266066,24.912672,24.436579,21.5047,17.924763
20.308546,23.446365,25.197718,25.408527,25.099096,25.11517,25.126652,25.133993,25.137169,25.134983,25.1299,25.124725,25.124548,25.129349,25.136808,25.144865,25.157867,25.17114,25.186628,25.20076,25.21401,25.227419,25.24045,25.255262,25.26646,25.281183,25.293253,25.30785,25.31699,25.327787,25.333786,25.343515,25.351007,25.3609,25.367943,25.378222,25.386938,25.398077,25.407618,25.417337,25.425709,25.43331,25.4409,25.447235,25.454548,25.460215,25.466923,25.471376,25.476889,25.48048,25.484198,25.485815,25.487268,25.487486,25.487198,25.486235,25.484781,25.482862,25.480024,25.476324,25.472006,25.466406,25.461037,25.453598,25.446781,25.438034,25.431866,25.423231,25.416878,25.407944,25.401796,25.39275,25.386175,25.375607,25.366796,25.354715,25.344683,25.332268,25.321241,25.308334,25.296616,25.286863,25.277893,25.270872,25.2626,25.255611,25.247583,25.24264,25.236433,25.232277,25.228071,25.226353,25.224302,25.223494,25.224915,25.227215,25.227392,25.22465,25.21844,25.210405,25.204287,25.195337,25.179817,25.170609,25.180115,25.178162,25.16263,25.15742,25.254122,24.925892,24.492102,21.605387,18.048267
20.280365,23.42312,25.202429,25.414818,25.10369,25.119928,25.13178,25.13958,25.143448,25.141788,25.13744,25.132776,25.133263,25.138489,25.146406,25.1547,25.16801,25.181479,25.197163,25.2114,25.224722,25.238142,25.251167,25.265926,25.27706,25.291702,25.303719,25.31822,25.327274,25.337963,25.343897,25.35353,25.36095,25.370697,25.377596,25.387707,25.396278,25.407219,25.41656,25.42605,25.434193,25.441587,25.448977,25.455158,25.46232,25.467894,25.47448,25.478834,25.484203,25.48768,25.491236,25.492727,25.494013,25.494127,25.493715,25.492687,25.491169,25.489222,25.486359,25.482641,25.478296,25.472702,25.467367,25.460018,25.453283,25.444664,25.438599,25.430109,25.423862,25.415035,25.408936,25.399952,25.393415,25.382929,25.374208,25.362263,25.352354,25.3401,25.329218,25.316502,25.30492,25.295229,25.286224,25.279144,25.270723,25.263624,25.255318,25.25007,25.243448,25.239017,25.234396,25.232368,25.229767,25.228462,25.229128,25.230782,25.230104,25.226627,25.219551,25.210741,25.203815,25.19419,25.178448,25.168402,25.17604,25.173077,25.158426,25.152634,25.243893,24.932636,24.528286,21.684013,18.157904
20.27883,23.412231,25.205387,25.41794,25.107224,25.12445,25.137562,25.1461,25.15093,25.14991,25.146467,25.142422,25.143677,25.149357,25.15775,25.166267,25.179825,25.193409,25.209204,25.223463,25.236763,25.250097,25.26302,25.277632,25.28864,25.303139,25.315065,25.329449,25.338408,25.348991,25.354862,25.364414,25.371777,25.381386,25.38815,25.398106,25.406559,25.41733,25.426497,25.435776,25.443697,25.4509,25.45809,25.464106,25.471085,25.476538,25.482952,25.487173,25.492315,25.495605,25.498884,25.500177,25.501196,25.501125,25.500502,25.499355,25.497738,25.495766,25.492878,25.489172,25.484827,25.47928,25.47404,25.466856,25.460266,25.451868,25.445976,25.437737,25.431679,25.423058,25.417063,25.408209,25.401747,25.391396,25.382782,25.370983,25.361193,25.34909,25.338337,25.325775,25.314276,25.304573,25.295437,25.288212,25.27954,25.272247,25.263567,25.257956,25.250862,25.246136,25.241081,25.238739,25.235573,25.233767,25.233656,25.234636,25.23307,25.228834,25.220894,25.21133,25.20361,25.193342,25.177536,25.166597,25.171883,25.1679,25.15497,25.148785,25.233675,24.939041,24.56413,21.770933,18.287603
20.291077,23.410484,25.206358,25.418312,25.10889,25.127117,25.141508,25.150782,25.15648,25.155964,25.15323,25.14967,25.151499,25.157494,25.166212,25.174854,25.188543,25.202162,25.217989,25.23223,25.245485,25.258728,25.271555,25.286053,25.296976,25.311386,25.323261,25.337591,25.346521,25.357077,25.362946,25.372498,25.379868,25.389444,25.396156,25.406076,25.414509,25.425247,25.434366,25.443546,25.451351,25.458452,25.465515,25.471407,25.478214,25.483534,25.489754,25.493826,25.498718,25.501806,25.504797,25.505896,25.506649,25.506403,25.505585,25.504335,25.50264,25.500662,25.49778,25.494112,25.489807,25.484354,25.479242,25.472256,25.465845,25.457706,25.452024,25.444086,25.43826,25.429897,25.424038,25.41536,25.409002,25.398787,25.390263,25.378553,25.368818,25.35678,25.346066,25.333557,25.32204,25.312256,25.302946,25.295551,25.286636,25.279161,25.270168,25.264267,25.256817,25.25189,25.24654,25.244001,25.24047,25.238342,25.237745,25.238295,25.236168,25.231457,25.222988,25.212963,25.204744,25.194084,25.178364,25.166739,25.170044,25.165033,25.15323,25.146648,25.226627,24.945238,24.593582,21.841263,18.392424
20.320507,23.414122,25.205072,25.415157,25.108612,25.129099,25.146019,25.156319,25.163074,25.163109,25.161163,25.158154,25.160606,25.166908,25.175909,25.184616,25.198343,25.211916,25.227686,25.241829,25.254955,25.268036,25.280722,25.295074,25.305893,25.320213,25.332048,25.346357,25.355293,25.365871,25.371761,25.381351,25.388746,25.398306,25.404972,25.414862,25.42328,25.433985,25.443047,25.452126,25.4598,25.466782,25.47369,25.479425,25.486034,25.491209,25.497211,25.501114,25.505724,25.508585,25.51125,25.512117,25.512566,25.512123,25.511084,25.509731,25.507973,25.506025,25.503197,25.499622,25.495392,25.490076,25.485136,25.478409,25.472221,25.464401,25.458965,25.451393,25.44585,25.437815,25.432127,25.423664,25.417437,25.407402,25.399002,25.387451,25.377823,25.365913,25.355295,25.342897,25.331406,25.321552,25.312042,25.30444,25.295223,25.287518,25.278152,25.271914,25.26407,25.258938,25.253283,25.250526,25.246601,25.244125,25.242966,25.24302,25.240229,25.23496,25.225906,25.215406,25.20664,25.195566,25.180004,25.167648,25.1687,25.16253,25.152037,25.144972,25.218826,24.954927,24.633512,21.936651,18.535704
20.34653,23.418327,25.202478,25.410559,25.106598,25.12955,25.14897,25.159975,25.167397,25.16776,25.166302,25.16364,25.166462,25.172934,25.182058,25.190748,25.204445,25.217936,25.233614,25.247646,25.260641,25.27359,25.286171,25.30043,25.311182,25.325462,25.33728,25.351603,25.360575,25.371199,25.377115,25.386734,25.394144,25.403688,25.410318,25.420185,25.42858,25.439238,25.448236,25.45724,25.464815,25.471706,25.478498,25.484123,25.490614,25.495712,25.501604,25.505405,25.50987,25.51262,25.51511,25.515842,25.516117,25.515566,25.514416,25.513021,25.511253,25.509352,25.5066,25.503117,25.498957,25.493727,25.488903,25.482338,25.47629,25.468658,25.463373,25.456017,25.450644,25.442806,25.437227,25.428894,25.422735,25.412815,25.404509,25.393105,25.3836,25.371834,25.361328,25.349075,25.337667,25.32782,25.318222,25.310495,25.30109,25.293247,25.283646,25.27719,25.269106,25.263857,25.258018,25.255116,25.250923,25.248207,25.246666,25.246363,25.243088,25.237417,25.227964,25.217152,25.208015,25.196661,25.181187,25.16838,25.168036,25.161171,25.151484,25.144064,25.213587,24.96301,24.66432,22.008997,18.643793
20.38181,23.423922,25.200212,25.406254,25.105766,25.13108,25.153158,25.16533,25.17378,25.174511,25.173622,25.171383,25.174654,25.181318,25.190569,25.19921,25.212809,25.22616,25.241684,25.255548,25.268341,25.28109,25.293514,25.307638,25.318287,25.33249,25.34428,25.35862,25.367647,25.378338,25.384296,25.393972,25.401413,25.410946,25.417532,25.427357,25.435722,25.446321,25.455242,25.46414,25.471594,25.478367,25.485014,25.4905,25.49682,25.501806,25.507524,25.511187,25.515423,25.517996,25.520216,25.520744,25.520761,25.520048,25.518717,25.517237,25.515434,25.51358,25.510914,25.50755,25.503473,25.498371,25.493715,25.487377,25.481514,25.474123,25.469017,25.461937,25.456793,25.449215,25.443773,25.43563,25.4296,25.419878,25.41173,25.400549,25.391224,25.37967,25.369318,25.35724,25.3459,25.336023,25.326254,25.318323,25.30862,25.300554,25.290607,25.283854,25.275467,25.270094,25.264053,25.260994,25.256504,25.253521,25.251507,25.250753,25.246851,25.240656,25.230698,25.219515,25.209948,25.198315,25.183046,25.169798,25.167776,25.16017,25.151628,25.143871,25.20773,24.97503,24.706446,22.110567,18.798706
20.404879,23.427242,25.19974,25.404917,25.106686,25.132887,25.156233,25.16932,25.178568,25.17951,25.178967,25.176994,25.180546,25.187332,25.196646,25.205236,25.21875,25.231987,25.247389,25.26113,25.273766,25.286356,25.298666,25.312685,25.323254,25.33739,25.349155,25.363506,25.37256,25.383299,25.3893,25.39902,25.40649,25.416023,25.422577,25.432373,25.440722,25.451288,25.460161,25.468994,25.476372,25.483072,25.489622,25.49502,25.501225,25.50612,25.511696,25.515253,25.519302,25.521723,25.523718,25.524086,25.523893,25.523052,25.521563,25.520002,25.518147,25.516312,25.51369,25.510395,25.506376,25.501364,25.49683,25.49066,25.484915,25.47768,25.472692,25.46579,25.460798,25.453394,25.448042,25.440042,25.434124,25.42457,25.416553,25.405539,25.396336,25.384932,25.374683,25.362701,25.351364,25.341427,25.331497,25.323399,25.31345,25.305191,25.294989,25.288033,25.279457,25.274015,25.26787,25.264734,25.26009,25.256952,25.25465,25.25361,25.24929,25.242739,25.232458,25.221048,25.21123,25.199478,25.184414,25.17097,25.167923,25.159933,25.152225,25.144344,25.204441,24.983887,24.735527,22.182318,18.91
20.441452,23.43418,25.199696,25.404282,25.109552,25.135876,25.160187,25.17485,25.185368,25.186434,25.186155,25.184422,25.188183,25.195011,25.204287,25.212748,25.226088,25.239159,25.254398,25.267996,25.280455,25.292883,25.305077,25.318993,25.329489,25.343569,25.355295,25.36967,25.378792,25.389612,25.395668,25.405441,25.412941,25.422464,25.428974,25.43871,25.446985,25.457447,25.466206,25.474909,25.482153,25.488714,25.495108,25.500372,25.506426,25.511229,25.516676,25.52013,25.52404,25.526365,25.528206,25.52846,25.52814,25.527231,25.525665,25.524073,25.522215,25.52043,25.517904,25.51472,25.51077,25.505854,25.501463,25.495485,25.489897,25.48286,25.478008,25.471342,25.466564,25.459408,25.454193,25.4464,25.44063,25.431313,25.423489,25.412714,25.40369,25.392506,25.382427,25.370638,25.359386,25.34944,25.339373,25.33112,25.320925,25.31246,25.301937,25.294699,25.285845,25.280304,25.273989,25.270725,25.265852,25.262514,25.259872,25.258512,25.253721,25.246765,25.236118,25.224464,25.214373,25.202494,25.18767,25.174026,25.169842,25.16151,25.154871,25.146887,25.202333,24.996597,24.772516,22.278965,19.065666
20.470255,23.440727,25.200138,25.404789,25.112776,25.138334,25.16271,25.178705,25.190235,25.191261,25.191021,25.189356,25.193129,25.199902,25.20906,25.2174,25.230581,25.243528,25.258665,25.272186,25.284555,25.296906,25.309042,25.32292,25.333385,25.347443,25.359142,25.373537,25.382715,25.393604,25.39969,25.409496,25.416998,25.426508,25.432985,25.442657,25.450855,25.461195,25.46984,25.478428,25.485561,25.491997,25.498264,25.503426,25.509388,25.51415,25.519552,25.522968,25.526861,25.529198,25.531046,25.5313,25.531,25.530125,25.5286,25.527044,25.52523,25.523493,25.521053,25.517946,25.51403,25.509157,25.50484,25.498974,25.49348,25.486568,25.481792,25.475279,25.470648,25.463676,25.458565,25.45092,25.445255,25.436115,25.428436,25.417831,25.408936,25.397919,25.387983,25.376364,25.365229,25.355328,25.34522,25.336922,25.32661,25.31805,25.307337,25.2999,25.290852,25.285234,25.27879,25.275425,25.270388,25.266918,25.264088,25.262571,25.257524,25.25035,25.239513,25.227741,25.21752,25.205593,25.190907,25.1772,25.17247,25.164074,25.158112,25.150133,25.202833,25.005808,24.795612,22.343832,19.17478
20.50916,23.449205,25.199991,25.404776,25.116714,25.141548,25.166315,25.184212,25.197227,25.198286,25.198223,25.196749,25.20068,25.207485,25.21664,25.224913,25.237991,25.250834,25.265882,25.279331,25.29159,25.303818,25.315851,25.329617,25.339994,25.353933,25.36553,25.379858,25.389046,25.399939,25.40602,25.415796,25.423258,25.432703,25.439116,25.448677,25.456755,25.46693,25.475418,25.483856,25.490843,25.497118,25.503223,25.508253,25.514103,25.51881,25.52415,25.527508,25.531359,25.53369,25.53552,25.535753,25.535439,25.534563,25.533028,25.53146,25.529627,25.527882,25.525476,25.522408,25.518475,25.513607,25.509352,25.5036,25.498217,25.491451,25.486767,25.480448,25.476015,25.469309,25.46436,25.456944,25.451437,25.44256,25.435095,25.424746,25.416037,25.405252,25.395512,25.384111,25.373121,25.363274,25.353113,25.34473,25.334257,25.32555,25.31458,25.306896,25.297594,25.291874,25.285238,25.281721,25.276436,25.272762,25.26961,25.26781,25.262354,25.25484,25.2437,25.231743,25.221325,25.20934,25.19481,25.181147,25.175983,25.167738,25.162634,25.154865,25.204464,25.018324,24.824938,22.427917,19.318214
20.542236,23.457388,25.199125,25.403942,25.119268,25.143593,25.168705,25.188066,25.202255,25.203371,25.203484,25.202187,25.206293,25.213165,25.22239,25.230675,25.243729,25.256516,25.271536,25.284948,25.297136,25.309261,25.321201,25.334846,25.345129,25.358936,25.370413,25.38463,25.39378,25.40462,25.410664,25.42037,25.427774,25.43714,25.443495,25.452953,25.460934,25.470976,25.479342,25.487669,25.494547,25.500708,25.506693,25.511627,25.517397,25.522066,25.527353,25.53066,25.534466,25.536789,25.538597,25.538807,25.538471,25.537584,25.536022,25.534416,25.53253,25.530743,25.528316,25.525232,25.521246,25.516346,25.512104,25.506422,25.501104,25.494444,25.489824,25.483662,25.479391,25.472902,25.468103,25.460897,25.455538,25.446888,25.439602,25.429468,25.42091,25.410315,25.400726,25.389503,25.37863,25.36884,25.35867,25.350256,25.339699,25.33092,25.319801,25.31198,25.302525,25.296741,25.289986,25.286362,25.280903,25.277075,25.273678,25.271656,25.265892,25.258142,25.246794,25.234726,25.224186,25.212206,25.197786,25.184324,25.17922,25.17139,25.166866,25.159431,25.207363,25.028074,24.844643,22.487251,19.42261
20.591913,23.471859,25.196707,25.400879,25.120842,25.144617,25.17009,25.19099,25.206427,25.207644,25.207962,25.206831,25.211084,25.217987,25.227222,25.235466,25.248404,25.261055,25.275967,25.289284,25.301338,25.31331,25.325113,25.338612,25.348793,25.362473,25.373833,25.387959,25.39709,25.407906,25.41392,25.42357,25.430927,25.44023,25.446539,25.455902,25.463781,25.473696,25.481947,25.49017,25.49694,25.502972,25.508812,25.513626,25.519262,25.523838,25.528996,25.532194,25.53587,25.538115,25.539816,25.53995,25.539555,25.538652,25.537048,25.535408,25.533491,25.531702,25.529293,25.52623,25.522207,25.517302,25.51311,25.507547,25.502342,25.49586,25.491367,25.48547,25.481455,25.475311,25.470736,25.463858,25.458729,25.450415,25.443377,25.43352,25.42514,25.414787,25.405403,25.394402,25.383698,25.374014,25.363907,25.355549,25.345024,25.336248,25.325089,25.317198,25.30769,25.30191,25.295122,25.291449,25.285881,25.28194,25.278343,25.27613,25.270119,25.262192,25.250725,25.238638,25.22806,25.216198,25.202003,25.189016,25.184332,25.17731,25.173548,25.16663,25.212702,25.041595,24.869741,22.562008,19.554665
20.650908,23.493256,25.193577,25.396292,25.121151,25.14443,25.17007,25.192028,25.208317,25.209589,25.21001,25.208967,25.213278,25.220173,25.229393,25.237597,25.25042,25.26294,25.277754,25.290993,25.302944,25.314795,25.326483,25.339863,25.349977,25.363565,25.374836,25.388887,25.398008,25.4088,25.414793,25.424397,25.431702,25.440947,25.447212,25.456491,25.464281,25.47408,25.482225,25.490355,25.497034,25.502953,25.508661,25.51337,25.518879,25.523361,25.528397,25.531504,25.535059,25.53723,25.538843,25.538925,25.538498,25.53761,25.535997,25.534351,25.53244,25.530672,25.5283,25.525265,25.521229,25.516327,25.512186,25.506739,25.50164,25.495329,25.490976,25.485346,25.481573,25.475763,25.47141,25.464863,25.459967,25.451975,25.445162,25.43556,25.42735,25.417234,25.408056,25.397284,25.386776,25.377247,25.367292,25.359081,25.34871,25.34004,25.328972,25.32112,25.311674,25.305958,25.299227,25.295568,25.289997,25.286028,25.282345,25.280037,25.273937,25.265976,25.254528,25.242525,25.232006,25.220333,25.206366,25.19397,25.190052,25.183998,25.180809,25.17431,25.219175,25.0533,24.888311,22.621578,19.664062
20.733091,23.527042,25.191067,25.391428,25.122591,25.145184,25.170877,25.19393,25.211037,25.212255,25.212675,25.211672,25.215992,25.222858,25.232069,25.240267,25.25302,25.265461,25.280247,25.29348,25.3054,25.317184,25.328783,25.342062,25.352125,25.365612,25.37676,25.390682,25.399755,25.41048,25.416433,25.425936,25.433142,25.442272,25.448462,25.4576,25.465252,25.474857,25.482822,25.490786,25.497307,25.503048,25.508574,25.513136,25.518515,25.522924,25.52789,25.530945,25.534473,25.53665,25.538292,25.538406,25.538055,25.537231,25.53568,25.534056,25.532171,25.53041,25.528057,25.52502,25.520947,25.516022,25.511902,25.506544,25.501547,25.495415,25.491205,25.485844,25.482315,25.476854,25.472742,25.466526,25.461855,25.45419,25.447615,25.438297,25.4303,25.420464,25.411547,25.401085,25.390858,25.381565,25.371822,25.363789,25.35358,25.34502,25.33403,25.326181,25.31674,25.311031,25.304293,25.300621,25.29501,25.290997,25.287212,25.28481,25.278639,25.270672,25.259249,25.247326,25.236864,25.225368,25.211578,25.199791,25.196766,25.191738,25.189072,25.182812,25.226345,25.064686,24.904987,22.681767,19.778975
20.83053,23.568907,25.187235,25.384598,25.123035,25.144735,25.170235,25.194248,25.211994,25.213034,25.213337,25.212341,25.216639,25.223473,25.2327,25.24093,25.253656,25.266047,25.280832,25.294079,25.306002,25.317753,25.32927,25.342464,25.352505,25.365936,25.376997,25.390833,25.399874,25.410576,25.41653,25.425964,25.433073,25.442078,25.448162,25.457142,25.464634,25.474012,25.481771,25.489548,25.495916,25.501501,25.506878,25.511326,25.51662,25.521004,25.52596,25.529018,25.532583,25.534807,25.536543,25.536743,25.536524,25.535803,25.53436,25.532799,25.530994,25.529291,25.527002,25.524012,25.519972,25.515085,25.511026,25.505775,25.500885,25.494926,25.490856,25.485737,25.482412,25.477262,25.473375,25.467491,25.463066,25.455738,25.449419,25.44043,25.43269,25.423195,25.414585,25.404484,25.394598,25.385616,25.376177,25.368387,25.358444,25.350086,25.33931,25.331587,25.3223,25.316685,25.31007,25.306473,25.300938,25.29695,25.293129,25.290663,25.28449,25.276583,25.265247,25.253445,25.24307,25.231754,25.218128,25.20696,25.20493,25.200872,25.198545,25.192186,25.234434,25.074495,24.916346,22.734753,19.887587
20.917126,23.604662,25.181305,25.376139,25.121218,25.141703,25.166842,25.191984,25.210485,25.211298,25.211475,25.210514,25.214832,25.221676,25.23096,25.23925,25.25196,25.264288,25.27904,25.292257,25.304152,25.315842,25.327265,25.340382,25.350407,25.363829,25.374865,25.388704,25.397778,25.408543,25.414562,25.42401,25.431072,25.44,25.446009,25.454866,25.462244,25.471443,25.479052,25.486717,25.493025,25.49856,25.503902,25.50832,25.513615,25.51802,25.523018,25.5261,25.529701,25.531948,25.533747,25.53402,25.533897,25.53325,25.531898,25.530407,25.528719,25.527124,25.524958,25.522085,25.518158,25.513401,25.509468,25.504364,25.499586,25.493776,25.489832,25.484911,25.481745,25.476849,25.473156,25.467598,25.463436,25.45647,25.450409,25.441769,25.434303,25.425167,25.416876,25.40711,25.397543,25.38887,25.379763,25.372244,25.362635,25.354544,25.344128,25.33668,25.32775,25.322365,25.316048,25.312643,25.307314,25.303421,25.299618,25.297087,25.290922,25.283077,25.27186,25.260193,25.249907,25.238758,25.225307,25.214706,25.213564,25.210295,25.208158,25.201523,25.242546,25.083502,24.925821,22.78169,19.985447
21.02267,23.64919,25.174812,25.366457,25.11977,25.139517,25.164282,25.189898,25.208616,25.209162,25.209162,25.208208,25.21251,25.219347,25.228687,25.237041,25.249735,25.261993,25.276697,25.289879,25.30174,25.313377,25.324694,25.337725,25.347754,25.361206,25.372252,25.386137,25.395262,25.40614,25.412266,25.42175,25.428766,25.437582,25.44347,25.452139,25.459332,25.468273,25.475657,25.48313,25.489311,25.494743,25.500015,25.50437,25.509634,25.514044,25.519072,25.522179,25.52582,25.528088,25.529963,25.530323,25.530315,25.529757,25.52853,25.527143,25.525629,25.524206,25.522232,25.519548,25.51582,25.511278,25.507542,25.502636,25.497992,25.492348,25.488531,25.483799,25.480772,25.476105,25.472593,25.467365,25.463491,25.456913,25.451136,25.442883,25.435736,25.427011,25.419083,25.409697,25.400486,25.392164,25.383436,25.376223,25.367004,25.359234,25.349268,25.342173,25.333696,25.328611,25.3227,25.319569,25.314548,25.310806,25.307066,25.304495,25.298382,25.290642,25.279575,25.26807,25.257887,25.246933,25.233692,25.22368,25.223438,25.220907,25.21896,25.211748,25.251234,25.091072,24.930784,22.829742,20.095015
21.113201,23.68918,25.171373,25.359928,25.12018,25.140186,25.164864,25.19,25.208235,25.208612,25.208454,25.207445,25.211664,25.218447,25.227768,25.236134,25.248777,25.260965,25.275621,25.288774,25.300611,25.312212,25.323448,25.336432,25.346474,25.359962,25.371025,25.384956,25.394123,25.405085,25.411295,25.420795,25.427746,25.436455,25.442215,25.450693,25.457693,25.466373,25.473524,25.480774,25.486774,25.492046,25.497173,25.501411,25.50658,25.510939,25.515932,25.519035,25.522682,25.524956,25.526882,25.52731,25.527401,25.526922,25.525803,25.524511,25.523151,25.52188,25.520077,25.517555,25.513996,25.509623,25.506039,25.501284,25.496738,25.491219,25.487492,25.482893,25.47996,25.475447,25.47205,25.467041,25.463356,25.457033,25.451447,25.44346,25.436535,25.428108,25.420443,25.41133,25.402386,25.394318,25.385857,25.378855,25.369904,25.362354,25.352692,25.345825,25.337656,25.332767,25.327148,25.324219,25.31944,25.315823,25.312153,25.309566,25.303514,25.29586,25.284891,25.273478,25.263351,25.252522,25.239426,25.229834,25.230225,25.228241,25.226503,25.218761,25.25685,25.09526,24.932243,22.86596,20.181427
21.216793,23.733173,25.167238,25.353119,25.122149,25.142601,25.167044,25.191372,25.208868,25.209082,25.208794,25.207779,25.211975,25.218752,25.228144,25.236607,25.249275,25.261442,25.276104,25.289268,25.301134,25.312717,25.323864,25.336763,25.346819,25.360321,25.371372,25.385302,25.39447,25.40549,25.411785,25.42128,25.428135,25.436663,25.442236,25.450426,25.457151,25.465448,25.47225,25.479153,25.484875,25.489904,25.494825,25.498905,25.503944,25.508236,25.513206,25.516317,25.520006,25.52232,25.524347,25.52487,25.525093,25.524702,25.52371,25.52253,25.52133,25.520216,25.518597,25.516266,25.512943,25.508818,25.505445,25.5009,25.496504,25.491148,25.487534,25.483084,25.480244,25.475891,25.47262,25.467863,25.464401,25.45839,25.453037,25.445381,25.438738,25.430668,25.423323,25.414555,25.40593,25.398167,25.39,25.383215,25.374529,25.367197,25.357832,25.351177,25.343279,25.338558,25.333212,25.33049,25.325953,25.32245,25.318842,25.316242,25.310287,25.302784,25.292,25.280773,25.2708,25.260202,25.247393,25.238285,25.239248,25.237701,25.236197,25.227688,25.264294,25.09797,24.926697,22.904472,20.288076
21.282488,23.759459,25.164017,25.349072,25.124441,25.145054,25.169191,25.193054,25.210144,25.210278,25.209969,25.20901,25.213274,25.220108,25.22965,25.238258,25.251026,25.263224,25.27795,25.29117,25.303099,25.314693,25.325771,25.338589,25.348633,25.36211,25.373112,25.386976,25.396103,25.407116,25.413454,25.422916,25.42969,25.438065,25.44349,25.45146,25.457977,25.465971,25.472492,25.479124,25.484623,25.489468,25.494236,25.498201,25.503168,25.507431,25.512411,25.515547,25.519299,25.521671,25.523804,25.524414,25.524725,25.524378,25.523464,25.522346,25.52122,25.520168,25.518635,25.516417,25.513262,25.509333,25.506113,25.50173,25.49745,25.492222,25.488697,25.48434,25.48155,25.477295,25.474113,25.469522,25.466215,25.460423,25.455246,25.447832,25.441391,25.43357,25.426443,25.417917,25.40951,25.401955,25.393969,25.387291,25.378721,25.3715,25.362263,25.355692,25.347881,25.343206,25.337961,25.335348,25.330915,25.327461,25.323866,25.32125,25.315384,25.308025,25.297434,25.286415,25.276613,25.266241,25.253723,25.244938,25.246168,25.244759,25.243359,25.234255,25.270027,25.098572,24.918488,22.927404,20.36195
21.35255,23.784306,25.15987,25.344318,25.12677,25.14755,25.171228,25.194448,25.210958,25.210945,25.2106,25.209732,25.2141,25.22101,25.230753,25.239557,25.252466,25.264717,25.27952,25.2928,25.30482,25.316442,25.32745,25.340197,25.350254,25.363745,25.374725,25.38856,25.39766,25.408697,25.415108,25.424553,25.431229,25.439411,25.444624,25.452295,25.458532,25.466139,25.472305,25.478573,25.483791,25.488417,25.493025,25.496872,25.501757,25.50598,25.510963,25.51414,25.51796,25.520393,25.522642,25.523361,25.523811,25.523554,25.522778,25.52177,25.520803,25.519905,25.518547,25.51652,25.513626,25.509983,25.507004,25.502853,25.49874,25.493681,25.490273,25.486042,25.483316,25.479187,25.476118,25.471758,25.468668,25.463192,25.45827,25.4512,25.445036,25.437567,25.430744,25.422556,25.414455,25.40719,25.399479,25.393003,25.38468,25.37768,25.368721,25.36234,25.354769,25.350239,25.345228,25.342789,25.33852,25.335125,25.33153,25.32887,25.323061,25.315836,25.30544,25.294659,25.285082,25.275032,25.262936,25.254591,25.256105,25.254852,25.253654,25.243853,25.278835,25.098715,24.903671,22.955132,20.462008
21.38764,23.794016,25.157106,25.341442,25.12769,25.14857,25.171925,25.194683,25.21077,25.210632,25.210249,25.209463,25.213902,25.220863,25.230736,25.239668,25.252674,25.264967,25.279806,25.293108,25.30518,25.316835,25.327808,25.340532,25.350624,25.364159,25.37517,25.389036,25.398144,25.409235,25.415716,25.425175,25.4318,25.439854,25.444916,25.452381,25.458433,25.465782,25.471716,25.477747,25.482786,25.487282,25.491814,25.495604,25.500452,25.50465,25.509638,25.512842,25.516705,25.51916,25.521477,25.522263,25.522821,25.522654,25.522,25.521095,25.520292,25.519548,25.518354,25.516497,25.513803,25.510382,25.507587,25.503607,25.499605,25.494658,25.49132,25.487164,25.484478,25.480429,25.47743,25.473228,25.470291,25.465048,25.460318,25.453495,25.447527,25.44031,25.433706,25.425755,25.41788,25.410818,25.403322,25.397024,25.388943,25.38215,25.37347,25.367292,25.359982,25.355629,25.350851,25.34856,25.34443,25.341078,25.337465,25.334745,25.32892,25.321732,25.311403,25.30074,25.291294,25.28146,25.269655,25.26161,25.263288,25.262144,25.26114,25.250916,25.285538,25.098335,24.891075,22.971825,20.530302
21.430227,23.804935,25.1552,25.339127,25.129469,25.150177,25.17293,25.19513,25.210695,25.210388,25.209885,25.209108,25.213554,25.220537,25.230495,25.239536,25.252615,25.264942,25.279858,25.293245,25.305416,25.317135,25.328093,25.340809,25.350945,25.364502,25.375483,25.389288,25.39834,25.409397,25.415892,25.425291,25.431822,25.43972,25.444645,25.451916,25.457792,25.464912,25.470633,25.476423,25.481258,25.485582,25.489979,25.493683,25.498436,25.502544,25.507448,25.51062,25.514458,25.516907,25.519247,25.520075,25.520725,25.520647,25.520128,25.519344,25.518705,25.518118,25.51709,25.515402,25.512918,25.509733,25.507156,25.503433,25.499634,25.49493,25.491764,25.48783,25.485292,25.481466,25.478632,25.474688,25.471945,25.467005,25.462519,25.455997,25.450258,25.443325,25.43698,25.42933,25.421757,25.41496,25.40775,25.401682,25.393902,25.38738,25.379013,25.373022,25.365953,25.361761,25.357218,25.355097,25.351137,25.34785,25.344307,25.341637,25.335964,25.328989,25.318947,25.308617,25.299522,25.29013,25.278864,25.271265,25.273085,25.272,25.271135,25.26077,25.295652,25.099957,24.876926,22.998516,20.62772
21.45424,23.810007,25.155241,25.338713,25.130941,25.151295,25.173527,25.195396,25.210648,25.210222,25.209595,25.208761,25.213152,25.22012,25.230087,25.239157,25.252243,25.264593,25.27959,25.293085,25.305347,25.317131,25.328115,25.340843,25.351023,25.36457,25.37549,25.389185,25.398148,25.409107,25.415562,25.42487,25.431314,25.439125,25.444002,25.4512,25.457014,25.464056,25.469698,25.47539,25.48011,25.484318,25.4886,25.492237,25.496899,25.500906,25.505692,25.508787,25.51255,25.51497,25.517282,25.518103,25.518776,25.518747,25.518305,25.517588,25.517033,25.516506,25.515556,25.513945,25.51155,25.508488,25.506037,25.5025,25.498875,25.494402,25.491402,25.487696,25.485329,25.481737,25.479053,25.47531,25.472694,25.467957,25.463625,25.457289,25.45168,25.444906,25.438707,25.431263,25.423895,25.417278,25.410255,25.404346,25.396767,25.390427,25.38223,25.376314,25.369337,25.365202,25.360767,25.358746,25.354881,25.351646,25.348211,25.345663,25.340214,25.33349,25.323767,25.313778,25.30504,25.296047,25.285234,25.27797,25.279829,25.278727,25.277868,25.26774,25.303375,25.102753,24.869612,23.01979,20.697609
