9.539782,9.597293,9.622261,9.470348,8.905645,13.965503,21.41381,25.562489,24.968212,25.157,25.110296,25.164442,25.187962,25.201765,25.197659,25.192627,25.18499,25.178991,25.17989,25.186352,25.20215,25.217228,25.23892,25.254097,25.275524,25.29037,25.30725,25.316391,25.330431,25.340897,25.35247,25.3602,25.369053,25.375538,25.381535,25.385134,25.38626,25.387117,25.38859,25.391855,25.39508,25.400513,25.404924,25.411257,25.41561,25.42315,25.429382,25.438013,25.444592,25.454216,25.462744,25.47431,25.484818,25.495447,25.505243,25.51482,25.525024,25.533504,25.543627,25.551392,25.561804,25.569523,25.580353,25.588112,25.5979,25.603836,25.611742,25.616858,25.623491,25.628237,25.634838,25.64102,25.649239,25.65804,25.667404,25.67842,25.689444,25.702494,25.713089,25.724611,25.732195,25.739666,25.743551,25.746313,25.746592,25.743603,25.73896,25.733006,25.72849,25.722544,25.717539,25.710402,25.703402,25.696047,25.687798,25.678715,25.667068,25.65699,25.642181,25.628365,25.611757,25.601582,25.587862,25.57828,25.565048,25.55606,25.547844,25.54575,25.549002,25.5556,25.55316,25.555473,25.594877,25.630798,25.680836,25.591532,26.599676,24.006136,16.800915,10.73145,10.537005,10.834788,10.698198,10.597191,10.586052,10.551771,10.522647,10.518251,10.539488,10.55561,10.564137,10.568537,10.567884,10.570111,10.570702,10.568861,10.56386,10.55503,10.554589,10.566271,10.579633,10.5855875,10.586969,10.583278,10.578573,10.575636,10.56761,10.559234
9.650801,9.709476,9.735188,9.586627,9.027746,14.063964,21.47409,25.58734,24.977865,25.158806,25.116316,25.17066,25.19428,25.20865,25.205338,25.200962,25.193974,25.188496,25.189896,25.196692,25.212812,25.228071,25.249964,25.265253,25.28686,25.301838,25.318884,25.328123,25.342302,25.352858,25.364502,25.37222,25.381002,25.387362,25.393246,25.396708,25.39769,25.3984,25.39976,25.402927,25.406107,25.411476,25.415825,25.422058,25.426327,25.433773,25.439953,25.448475,25.454956,25.464487,25.472971,25.484488,25.494957,25.505512,25.51524,25.524775,25.53496,25.543415,25.553532,25.561306,25.5717,25.579397,25.59014,25.5978,25.60744,25.613266,25.621004,25.625994,25.632513,25.637228,25.64387,25.650158,25.6585,25.667452,25.676966,25.688179,25.699423,25.712734,25.723515,25.735277,25.743048,25.75077,25.754843,25.75779,25.758152,25.755266,25.75069,25.744806,25.740326,25.734459,25.729528,25.722452,25.715502,25.708204,25.700031,25.69105,25.679539,25.669575,25.654968,25.641361,25.625036,25.61507,25.601507,25.591948,25.578674,25.569607,25.561182,25.55886,25.561699,25.567892,25.565044,25.56687,25.605356,25.63975,25.688366,25.595196,26.584135,24.004992,16.861868,10.851009,10.667008,10.968348,10.831958,10.730902,10.719721,10.686162,10.658012,10.654402,10.675734,10.690772,10.698013,10.702786,10.70337,10.706189,10.707201,10.704986,10.702003,10.698845,10.703202,10.715187,10.727335,10.731784,10.73248,10.72945,10.725558,10.723119,10.715643,10.707651
9.7994585,9.859734,9.8865385,9.74306,9.192889,14.195238,21.550398,25.615799,24.988459,25.159723,25.122593,25.177418,25.201399,25.21658,25.214258,25.210705,25.204515,25.199686,25.201729,25.208954,25.225494,25.240973,25.263147,25.278631,25.30051,25.315672,25.332947,25.34232,25.35669,25.367355,25.379038,25.386675,25.395298,25.401438,25.4071,25.410303,25.411032,25.41148,25.412657,25.415668,25.41878,25.424059,25.428343,25.434477,25.438675,25.44604,25.45217,25.460592,25.466988,25.476433,25.48487,25.496332,25.50676,25.517246,25.526915,25.536415,25.54658,25.555021,25.565144,25.57295,25.583342,25.591003,25.601614,25.609129,25.61855,25.62421,25.631708,25.636526,25.642878,25.647545,25.65423,25.660662,25.669167,25.678299,25.687988,25.699417,25.710903,25.724503,25.735485,25.747513,25.755499,25.763521,25.767822,25.771015,25.771498,25.768763,25.764263,25.758472,25.754053,25.748299,25.743471,25.736485,25.729609,25.722404,25.714367,25.70555,25.694262,25.68449,25.670206,25.656929,25.641048,25.631424,25.618174,25.608725,25.59549,25.58637,25.577784,25.575258,25.577677,25.583437,25.580168,25.581453,25.618982,25.651552,25.697882,25.600006,26.565662,24.007824,16.947977,11.014045,10.841419,11.146735,11.0126295,10.912782,10.901202,10.868428,10.841599,10.839295,10.861229,10.876569,10.883548,10.887723,10.887846,10.890975,10.892756,10.889698,10.889589,10.895551,10.906245,10.915685,10.924595,10.92851,10.929608,10.927585,10.924856,10.923044,10.917117,10.910709
9.909406,9.970932,9.998639,9.859378,9.316362,14.291619,21.602705,25.632593,24.994541,25.159513,25.126041,25.181398,25.205853,25.221706,25.220112,25.217169,25.211565,25.207205,25.20971,25.217247,25.23407,25.24967,25.272028,25.287666,25.309742,25.32502,25.342447,25.351917,25.366428,25.377182,25.38887,25.39641,25.404894,25.410845,25.416311,25.419283,25.419779,25.41999,25.421011,25.423893,25.426945,25.432163,25.436409,25.442492,25.446661,25.453978,25.460073,25.468435,25.474775,25.484161,25.49255,25.503939,25.514296,25.524725,25.534346,25.5438,25.553932,25.562357,25.57249,25.580345,25.590761,25.598402,25.608929,25.616348,25.62562,25.631166,25.63849,25.643188,25.649427,25.654064,25.660791,25.667332,25.675968,25.685226,25.69503,25.706594,25.718227,25.731997,25.743092,25.755274,25.76339,25.771597,25.776033,25.779388,25.779966,25.77733,25.772886,25.76716,25.762785,25.757128,25.752392,25.745493,25.738691,25.73158,25.723675,25.715015,25.703941,25.694342,25.680342,25.667343,25.651852,25.642529,25.62957,25.620247,25.607094,25.597954,25.589306,25.586689,25.588879,25.594376,25.590853,25.591816,25.628868,25.660292,25.704742,25.603577,26.553188,24.012012,17.013664,11.135697,10.9700985,11.278124,11.147046,11.048971,11.036919,11.00461,10.978725,10.977407,10.999972,11.016966,11.025079,11.027895,11.025893,11.028913,11.031444,11.027385,11.029274,11.042683,11.057999,11.063956,11.069915,11.074777,11.077107,11.075615,11.073578,11.072178,11.068162,11.0639515
10.06584,10.129094,10.158005,10.024799,9.492145,14.428694,21.676699,25.656416,25.003853,25.160084,25.1316,25.187662,25.212732,25.229399,25.228659,25.226429,25.221521,25.217743,25.220839,25.22877,25.245958,25.261717,25.284338,25.300205,25.322556,25.337994,25.355627,25.365225,25.37992,25.390778,25.402435,25.409805,25.418055,25.42372,25.428875,25.431503,25.431652,25.43151,25.432285,25.434944,25.437887,25.442968,25.447123,25.45308,25.45716,25.464363,25.470388,25.478619,25.48485,25.494112,25.502413,25.513685,25.523956,25.534298,25.543858,25.553267,25.563372,25.57179,25.581945,25.589851,25.600273,25.607883,25.618277,25.62555,25.634604,25.639988,25.64709,25.651638,25.657724,25.662321,25.669102,25.675785,25.684586,25.694004,25.703941,25.715656,25.727476,25.741453,25.752691,25.765059,25.77332,25.781754,25.786375,25.789953,25.79065,25.788174,25.783829,25.778238,25.773956,25.768469,25.763885,25.757143,25.750467,25.743511,25.735796,25.727356,25.716572,25.707209,25.69359,25.680967,25.665989,25.657053,25.644485,25.635334,25.622295,25.613136,25.604399,25.601633,25.603495,25.60862,25.60472,25.60518,25.641443,25.67117,25.712639,25.607466,26.536596,24.021154,17.110538,11.311155,11.153906,11.464609,11.3380165,11.242548,11.22971,11.198007,11.173515,11.174809,11.199665,11.218499,11.226698,11.227272,11.2226515,11.225558,11.2294855,11.22577,11.230162,11.249349,11.268456,11.272447,11.276948,11.282922,11.2866955,11.285916,11.285094,11.284657,11.283162,11.281438
10.177185,10.241637,10.27136,10.142503,9.617325,14.526485,21.729729,25.67393,25.011175,25.161198,25.13618,25.192686,25.21813,25.23527,25.235016,25.233189,25.228685,25.225275,25.228745,25.236927,25.254353,25.270224,25.29303,25.309067,25.331612,25.347157,25.364931,25.374615,25.38943,25.40034,25.41195,25.419174,25.427238,25.43268,25.437601,25.439966,25.439863,25.439459,25.440042,25.44252,25.445364,25.450325,25.454388,25.460213,25.464205,25.471289,25.47724,25.485346,25.491472,25.500618,25.508842,25.520031,25.530237,25.540516,25.55004,25.559425,25.569532,25.577957,25.588133,25.596058,25.606468,25.61405,25.624342,25.631502,25.640392,25.645662,25.652615,25.657064,25.663054,25.667618,25.67444,25.681221,25.690123,25.699642,25.709661,25.721476,25.73342,25.747536,25.758858,25.771338,25.77968,25.788261,25.793013,25.796736,25.79751,25.795158,25.790909,25.785444,25.781252,25.775908,25.771452,25.764841,25.75827,25.751434,25.74385,25.735558,25.72497,25.715763,25.702404,25.690027,25.675385,25.666706,25.654392,25.645359,25.632404,25.623251,25.61444,25.611559,25.613178,25.61803,25.61383,25.613895,25.6495,25.677935,25.71699,25.609293,26.525307,24.029459,17.181393,11.437337,11.2851715,11.597101,11.473686,11.380063,11.366644,11.335359,11.311891,11.3159685,11.343506,11.363196,11.370196,11.368748,11.362469,11.365552,11.370931,11.368539,11.374321,11.394334,11.414394,11.4192705,11.424738,11.431232,11.435725,11.435439,11.435644,11.436146,11.436322,11.435916
10.338672,10.404652,10.435325,10.312152,9.797198,14.665065,21.801868,25.69567,25.020802,25.162724,25.142183,25.199402,25.225538,25.243366,25.243753,25.242495,25.238533,25.23557,25.239498,25.247993,25.265715,25.281715,25.30477,25.321043,25.34388,25.359604,25.377607,25.387438,25.40246,25.413479,25.425058,25.432102,25.439936,25.445093,25.449713,25.451729,25.451302,25.450544,25.450878,25.453087,25.455761,25.460514,25.464441,25.470064,25.473907,25.480803,25.486645,25.494595,25.500614,25.50962,25.517756,25.528849,25.539,25.549225,25.558722,25.568092,25.578194,25.58662,25.596794,25.604733,25.615108,25.622637,25.632788,25.639801,25.648504,25.653648,25.660454,25.664816,25.6707,25.675213,25.682047,25.688898,25.697872,25.707455,25.717495,25.729345,25.74137,25.755602,25.767006,25.7796,25.78803,25.796783,25.801693,25.80561,25.806498,25.804314,25.800179,25.794868,25.790787,25.785624,25.781319,25.774881,25.768452,25.761782,25.754395,25.74633,25.736036,25.727072,25.71407,25.702032,25.687807,25.67943,25.667372,25.65841,25.645432,25.636171,25.627142,25.62404,25.625282,25.629782,25.62524,25.624855,25.65945,25.686428,25.723555,25.6139,26.511549,24.044485,17.287874,11.623448,11.476608,11.788748,11.670085,11.57893,11.564165,11.5332,11.511249,11.518036,11.547867,11.568324,11.5748825,11.575379,11.57051,11.570284,11.573481,11.576215,11.586918,11.605407,11.623643,11.6293545,11.636189,11.643444,11.648965,11.649312,11.651113,11.6532135,11.654495,11.654678
10.456531,10.523478,10.554679,10.435211,9.927285,14.763877,21.851091,25.708948,25.027206,25.163862,25.14618,25.203959,25.230701,25.249025,25.249825,25.248959,25.245361,25.242668,25.246859,25.25555,25.273447,25.289513,25.312723,25.32916,25.352219,25.368076,25.386267,25.396215,25.411407,25.422527,25.434105,25.44104,25.44873,25.45371,25.458138,25.45993,25.45929,25.4583,25.458464,25.460478,25.463001,25.467577,25.471395,25.476858,25.48057,25.487314,25.493067,25.500916,25.506882,25.515804,25.523872,25.534914,25.545048,25.555258,25.564749,25.57411,25.584204,25.592617,25.602774,25.610695,25.62103,25.628513,25.638569,25.645489,25.654083,25.659172,25.665922,25.670261,25.676096,25.680576,25.68739,25.694242,25.703217,25.71279,25.722778,25.734585,25.746607,25.760862,25.772295,25.78494,25.793413,25.802261,25.807268,25.81132,25.81229,25.810213,25.806147,25.800936,25.796923,25.791872,25.787668,25.781336,25.775007,25.768457,25.76122,25.753332,25.743256,25.73448,25.721725,25.709911,25.695942,25.687733,25.675774,25.666798,25.653702,25.644289,25.635025,25.63173,25.632677,25.636944,25.63221,25.631577,25.665382,25.69156,25.72833,25.618467,26.50339,24.057808,17.368542,11.761724,11.6171255,11.9281645,11.813093,11.723605,11.707495,11.676552,11.655746,11.663677,11.694169,11.714845,11.721869,11.726907,11.725573,11.7207985,11.719791,11.728373,11.744383,11.759624,11.774226,11.780409,11.788376,11.796168,11.802401,11.803144,11.806181,11.809625,11.810861,11.810577
10.620389,10.688726,10.720632,10.6061535,10.107812,14.900355,21.918045,25.726524,25.03646,25.1662,25.152205,25.21074,25.238365,25.257399,25.258808,25.258528,25.25548,25.253206,25.257793,25.266756,25.284883,25.301018,25.324394,25.341015,25.364292,25.380278,25.398657,25.40874,25.424145,25.43541,25.447012,25.453833,25.461403,25.466211,25.470436,25.47197,25.47106,25.469753,25.469687,25.4714,25.473688,25.47797,25.481598,25.486782,25.490288,25.496761,25.502346,25.509993,25.515837,25.524574,25.532497,25.543375,25.55339,25.563492,25.572893,25.582155,25.592144,25.60048,25.610546,25.618418,25.62867,25.636084,25.646011,25.652826,25.661316,25.666363,25.673073,25.677404,25.683216,25.687696,25.69455,25.70146,25.710499,25.720116,25.730106,25.741926,25.753992,25.768332,25.77984,25.792604,25.80116,25.810167,25.81532,25.819555,25.820648,25.81872,25.814743,25.809652,25.805727,25.80083,25.796776,25.7906,25.784418,25.77805,25.771029,25.763382,25.753593,25.745045,25.732586,25.721035,25.70735,25.69932,25.687454,25.678453,25.665215,25.655628,25.646069,25.642508,25.643076,25.647017,25.641968,25.640884,25.67337,25.698198,25.734076,25.624037,26.49216,24.077553,17.482742,11.9557295,11.812746,12.121141,12.011245,11.9240885,11.905899,11.87496,11.855897,11.865597,11.89711,11.918354,11.925728,11.933587,11.934784,11.928583,11.926711,11.940615,11.960134,11.971371,11.981949,11.988662,11.997944,12.006383,12.013458,12.014658,12.019332,12.024637,12.025976,12.024603
10.748371,10.817719,10.850045,10.7391205,10.24791,15.005646,21.968842,25.739359,25.043736,25.168356,25.156963,25.216026,25.24433,25.263891,25.265753,25.265913,25.26328,25.261324,25.266195,25.27534,25.293594,25.309755,25.333199,25.34991,25.373278,25.389305,25.407764,25.417915,25.433456,25.444828,25.456448,25.463203,25.470716,25.475441,25.479555,25.48092,25.479826,25.478292,25.47805,25.479527,25.481613,25.485634,25.489088,25.494015,25.497332,25.503551,25.50897,25.516418,25.52214,25.530699,25.538475,25.54918,25.55906,25.569023,25.578302,25.58743,25.597275,25.605495,25.615448,25.623251,25.633411,25.640753,25.650587,25.657333,25.665768,25.670805,25.677513,25.681856,25.68769,25.692194,25.699112,25.706097,25.715206,25.724874,25.734898,25.74675,25.758873,25.7733,25.784883,25.797762,25.80641,25.815569,25.82085,25.825254,25.82645,25.82465,25.820751,25.815754,25.811897,25.807125,25.803185,25.797146,25.79109,25.784883,25.77805,25.770607,25.761044,25.752668,25.740425,25.729061,25.715574,25.707659,25.695848,25.686823,25.673487,25.663794,25.654026,25.650269,25.650555,25.654242,25.64893,25.647432,25.678743,25.70242,25.737509,25.627712,26.483648,24.094404,17.574467,12.109495,11.965881,12.270788,12.16514,12.079811,12.059731,12.028713,12.0111475,12.022145,12.054265,12.076099,12.083768,12.091956,12.0939045,12.089816,12.090232,12.105979,12.125356,12.133879,12.142137,12.149177,12.159291,12.168144,12.175741,12.177198,12.18292,12.18944,12.192169,12.191408
10.910735,10.981102,11.013711,10.906814,10.424132,15.138638,22.03443,25.756788,25.052778,25.170385,25.162378,25.221893,25.250814,25.270864,25.27316,25.27374,25.271486,25.269808,25.274908,25.284185,25.30252,25.318674,25.342129,25.358871,25.382269,25.39831,25.416794,25.426966,25.442577,25.454,25.465565,25.472178,25.479527,25.484056,25.487955,25.489065,25.487732,25.485922,25.485474,25.48668,25.488546,25.49228,25.495548,25.500156,25.503222,25.50912,25.514334,25.521542,25.527124,25.535479,25.543114,25.553673,25.56344,25.573286,25.582441,25.59143,25.601122,25.609201,25.618998,25.626698,25.636717,25.643946,25.653612,25.660229,25.668528,25.673517,25.68017,25.684496,25.690311,25.69482,25.701786,25.708843,25.718018,25.727722,25.737738,25.749607,25.761797,25.776348,25.788027,25.801079,25.809885,25.819317,25.82484,25.829546,25.830927,25.829376,25.82564,25.82084,25.817106,25.81252,25.80874,25.802904,25.79704,25.791052,25.784475,25.777323,25.768106,25.760023,25.748152,25.737103,25.723976,25.7163,25.704683,25.695717,25.682344,25.672533,25.662565,25.65861,25.658558,25.661915,25.656237,25.654222,25.68413,25.70642,25.740377,25.630884,26.471485,24.115269,17.691998,12.306395,12.16072,12.4602585,12.360253,12.277335,12.254691,12.223548,12.207982,12.220509,12.2532015,12.276006,12.2844,12.292885,12.295581,12.294997,12.298193,12.313053,12.330198,12.337549,12.345366,12.352824,12.363711,12.373056,12.381252,12.382993,12.389201,12.396001,12.407358,12.417132
11.053643,11.124644,11.15723,11.053468,10.577923,15.255135,22.09297,25.772877,25.06032,25.171251,25.166243,25.225975,25.25528,25.27564,25.278248,25.279114,25.277107,25.2756,25.28082,25.290154,25.308489,25.3246,25.348,25.364697,25.388044,25.404058,25.4225,25.432652,25.448265,25.459698,25.471197,25.477703,25.484907,25.489271,25.492996,25.493916,25.492407,25.4904,25.489805,25.490803,25.492506,25.496004,25.499115,25.50345,25.506289,25.511894,25.516924,25.52391,25.52937,25.537558,25.545078,25.555517,25.565195,25.574932,25.583963,25.592829,25.602365,25.610302,25.619944,25.62754,25.637426,25.644554,25.654076,25.66058,25.668774,25.673733,25.680342,25.684649,25.690449,25.694958,25.701965,25.709064,25.718262,25.72796,25.73794,25.749796,25.762016,25.776651,25.788393,25.801594,25.81055,25.820242,25.825993,25.830984,25.832533,25.831217,25.827637,25.823019,25.819397,25.814974,25.811344,25.805708,25.800045,25.794283,25.787977,25.781122,25.772274,25.764507,25.753036,25.742323,25.729595,25.722195,25.71085,25.701998,25.688675,25.678812,25.668736,25.664658,25.66434,25.6674,25.661392,25.658915,25.687643,25.708776,25.741596,25.63262,26.460653,24.134531,17.797132,12.480714,12.3311,12.624256,12.529289,12.448511,12.423517,12.392209,12.378423,12.392094,12.425042,12.448737,12.457897,12.466171,12.469076,12.472257,12.478109,12.490073,12.503869,12.511738,12.520853,12.52867,12.540007,12.549729,12.558348,12.560262,12.566504,12.573042,12.593556,12.614971
11.21129,11.283639,11.316112,11.215694,10.747944,15.384498,22.159117,25.791689,25.068495,25.171589,25.170086,25.2301,25.2599,25.280682,25.283712,25.284971,25.283312,25.28204,25.28743,25.29685,25.315199,25.331263,25.354591,25.371244,25.394547,25.410542,25.428967,25.439121,25.454784,25.466269,25.47778,25.484251,25.491411,25.495714,25.49936,25.500164,25.49854,25.496372,25.495651,25.496439,25.497948,25.501165,25.504076,25.508097,25.510689,25.515963,25.520767,25.527498,25.532808,25.540792,25.548153,25.558395,25.567913,25.57747,25.58632,25.594994,25.604317,25.612062,25.621525,25.62902,25.638798,25.64585,25.655285,25.66174,25.669926,25.674911,25.681562,25.6859,25.691736,25.696274,25.70333,25.710457,25.71964,25.729286,25.739199,25.750998,25.763191,25.777843,25.789618,25.802929,25.81201,25.821913,25.827835,25.833048,25.834728,25.833588,25.830114,25.825626,25.82209,25.817827,25.814362,25.808954,25.803534,25.79806,25.792093,25.785612,25.777205,25.769804,25.758785,25.748442,25.736147,25.72904,25.71796,25.709211,25.695929,25.686024,25.675823,25.671595,25.670982,25.673729,25.667377,25.664408,25.691832,25.71172,25.743198,25.635136,26.450558,24.158276,17.91492,12.673348,12.518089,12.803115,12.713466,12.634962,12.607479,12.575932,12.563941,12.578715,12.611845,12.636246,12.646025,12.654294,12.657521,12.66355,12.671522,12.681825,12.693469,12.701495,12.711392,12.719642,12.73156,12.741707,12.750869,12.753211,12.758846,12.764031,12.787694,12.814178
11.375615,11.447578,11.479822,11.38335,10.924484,15.518875,22.227198,25.810184,25.075832,25.170546,25.172495,25.23264,25.262877,25.284027,25.287462,25.289087,25.287766,25.286747,25.292336,25.30186,25.32024,25.336275,25.359549,25.37617,25.399445,25.415438,25.43387,25.444044,25.459774,25.471329,25.482897,25.489391,25.496569,25.50086,25.504478,25.505217,25.503506,25.501207,25.50038,25.500988,25.502333,25.505304,25.508034,25.51179,25.51419,25.519186,25.52379,25.53029,25.535456,25.543245,25.550451,25.56049,25.569824,25.57919,25.58785,25.596334,25.605448,25.613014,25.622313,25.629732,25.639427,25.646423,25.655798,25.662216,25.670404,25.67543,25.68212,25.686472,25.69234,25.69691,25.70402,25.711178,25.720337,25.729923,25.73977,25.751507,25.763653,25.778276,25.790033,25.803396,25.812567,25.822617,25.82865,25.83399,25.835749,25.834702,25.831274,25.826838,25.823334,25.81919,25.815872,25.810677,25.805502,25.800335,25.794739,25.788668,25.780745,25.773733,25.763222,25.753305,25.741556,25.734835,25.724169,25.715628,25.70254,25.692705,25.682514,25.67821,25.677355,25.679787,25.67308,25.669624,25.695852,25.714594,25.744724,25.637516,26.440084,24.182026,18.034126,12.867983,12.706037,12.981907,12.897376,12.821164,12.791425,12.759731,12.749461,12.765305,12.798595,12.823486,12.833641,12.841989,12.845429,12.852917,12.86202,12.871634,12.882424,12.890729,12.90128,12.909956,12.922415,12.932948,12.942397,12.94454,12.952555,12.961361,12.983535,13.004991
11.529421,11.599529,11.631497,11.539196,11.08939,15.644675,22.290726,25.82683,25.081524,25.168013,25.17306,25.233156,25.263702,25.285099,25.28883,25.290722,25.289675,25.288902,25.294706,25.304338,25.32279,25.338839,25.36213,25.378756,25.402054,25.418068,25.436548,25.446766,25.462572,25.474207,25.485844,25.49236,25.49955,25.503813,25.507397,25.50805,25.50624,25.503807,25.50287,25.50333,25.50456,25.507374,25.509989,25.51358,25.515865,25.52069,25.525177,25.531519,25.53658,25.54423,25.55133,25.561228,25.570433,25.579664,25.588202,25.596567,25.605555,25.612999,25.622187,25.629559,25.639194,25.64614,25.65542,25.661753,25.669874,25.67489,25.68154,25.685852,25.691706,25.696295,25.703466,25.71069,25.719866,25.72943,25.739271,25.750988,25.763124,25.777729,25.789448,25.802822,25.812057,25.822208,25.828316,25.833738,25.835535,25.834522,25.831108,25.826662,25.823141,25.819048,25.815832,25.81079,25.805813,25.800894,25.795626,25.789915,25.782438,25.775787,25.765783,25.75631,25.745176,25.738922,25.728804,25.720585,25.70786,25.698214,25.68819,25.683903,25.682896,25.685045,25.678034,25.674152,25.699375,25.717121,25.746105,25.639366,26.429092,24.201792,18.141953,13.04574,12.878002,13.145648,13.0657,12.991691,12.960172,12.928076,12.918761,12.935873,12.970141,12.995666,13.005878,13.01435,13.017887,13.025703,13.035123,13.044805,13.055678,13.064181,13.075095,13.084112,13.097043,13.108015,13.116873,13.116785,13.132694,13.155074,13.175261,13.182532
11.718099,11.781765,11.813707,11.727599,11.290202,15.795201,22.360617,25.841116,25.088097,25.166586,25.174469,25.23445,25.265362,25.287006,25.291046,25.29321,25.29246,25.291965,25.298023,25.307775,25.326313,25.342388,25.365692,25.382322,25.405645,25.421686,25.44021,25.450462,25.466322,25.477997,25.489672,25.496185,25.503338,25.507523,25.511017,25.511543,25.509584,25.506964,25.505882,25.506165,25.507273,25.509914,25.512403,25.515833,25.518019,25.522684,25.527042,25.533201,25.538118,25.545593,25.552553,25.562258,25.57129,25.580336,25.588713,25.596943,25.605795,25.613106,25.622175,25.629498,25.639069,25.645964,25.655144,25.661371,25.669395,25.674385,25.68095,25.68519,25.690992,25.695581,25.702799,25.710081,25.719261,25.728794,25.738626,25.750336,25.762459,25.777042,25.788708,25.802088,25.81139,25.82164,25.827826,25.833324,25.83515,25.834171,25.830776,25.82633,25.822802,25.818775,25.815691,25.810837,25.806097,25.801477,25.796587,25.791288,25.784313,25.778069,25.768637,25.75968,25.749268,25.743565,25.734127,25.72633,25.71409,25.7047,25.694912,25.690664,25.68947,25.691257,25.683777,25.679338,25.70358,25.720366,25.748138,25.641388,26.414614,24.221811,18.264395,13.25018,13.076532,13.335092,13.260202,13.188629,13.155091,13.123978,13.117685,13.135868,13.169223,13.194681,13.205217,13.213997,13.217759,13.225584,13.235113,13.245331,13.256822,13.265586,13.276839,13.286248,13.299638,13.310735,13.320222,13.32039,13.343273,13.375418,13.392282,13.386762
11.872611,11.928581,11.961174,11.879432,11.450414,15.91193,22.40991,25.84778,25.093418,25.167358,25.176813,25.23678,25.268076,25.289944,25.2942,25.296572,25.296034,25.295732,25.301954,25.311787,25.330368,25.346449,25.369741,25.386354,25.409678,25.425741,25.444284,25.454548,25.470407,25.482067,25.49372,25.500198,25.507261,25.511333,25.514711,25.515097,25.512995,25.510208,25.508999,25.509125,25.510118,25.512604,25.514975,25.518251,25.520351,25.52485,25.529074,25.53504,25.539816,25.547104,25.553919,25.56342,25.57227,25.581125,25.589338,25.597425,25.606146,25.613338,25.6223,25.62957,25.63909,25.64595,25.655064,25.661222,25.669182,25.674149,25.680655,25.684837,25.69059,25.695164,25.702394,25.7097,25.718851,25.728338,25.738146,25.749832,25.761929,25.776482,25.788113,25.8015,25.810856,25.82119,25.82744,25.83301,25.834871,25.833952,25.830595,25.8262,25.82271,25.818796,25.815853,25.811201,25.806688,25.80234,25.797766,25.79281,25.786232,25.780302,25.771309,25.762741,25.752861,25.747562,25.73862,25.731142,25.719257,25.710037,25.700396,25.696156,25.694792,25.696278,25.688354,25.683409,25.706903,25.72295,25.749788,25.642773,26.402292,24.236214,18.359716,13.410635,13.232777,13.484452,13.413461,13.343652,13.308296,13.279761,13.278472,13.296941,13.326794,13.351239,13.362521,13.371649,13.375738,13.383936,13.393827,13.404373,13.41619,13.425188,13.436783,13.446533,13.460247,13.471109,13.482609,13.486374,13.509542,13.5385,13.553056,13.547039
12.081316,12.12529,12.15746,12.087082,11.679148,16.08199,22.47994,25.856695,25.102406,25.17066,25.182169,25.241983,25.27362,25.295794,25.300442,25.303146,25.302958,25.302973,25.309462,25.31941,25.338049,25.35412,25.377373,25.39394,25.417206,25.433233,25.45174,25.461988,25.477785,25.489378,25.500967,25.507387,25.514355,25.518303,25.521551,25.521765,25.519474,25.516449,25.515053,25.514948,25.515772,25.51803,25.520235,25.523335,25.52535,25.529697,25.533787,25.539555,25.54417,25.55124,25.557875,25.567123,25.57574,25.584349,25.59235,25.600262,25.608822,25.615875,25.62471,25.631905,25.641348,25.64816,25.657192,25.663277,25.671171,25.676119,25.682552,25.686663,25.692347,25.696896,25.704113,25.711409,25.72049,25.72991,25.739697,25.751387,25.763472,25.778025,25.789661,25.803116,25.812569,25.82305,25.829395,25.835085,25.837015,25.83619,25.832891,25.828566,25.825125,25.821325,25.818523,25.81407,25.809786,25.80572,25.801489,25.796894,25.790747,25.785143,25.776623,25.76848,25.75917,25.754288,25.745865,25.738708,25.727192,25.718164,25.708622,25.704296,25.7026,25.703615,25.694935,25.689266,25.712156,25.727661,25.753517,25.645693,26.386042,24.253473,18.481833,13.6180315,13.4359455,13.679544,13.613433,13.545913,13.508492,13.482171,13.485589,13.5046015,13.531536,13.555218,13.567225,13.576875,13.581507,13.590293,13.600731,13.611747,13.624003,13.633319,13.645323,13.655463,13.669484,13.679728,13.694822,13.705336,13.728088,13.749702,13.760709,13.755939
12.236332,12.271029,12.301946,12.243363,11.857185,16.217688,22.537363,25.865837,25.110645,25.1742,25.18757,25.247145,25.27888,25.301294,25.30634,25.30935,25.309473,25.309778,25.316498,25.326544,25.345215,25.361269,25.38447,25.400991,25.424168,25.440117,25.45855,25.468761,25.484486,25.496012,25.507544,25.513933,25.520863,25.52476,25.527945,25.52805,25.525625,25.522411,25.520864,25.520567,25.521242,25.523314,25.525385,25.528376,25.530363,25.534649,25.538685,25.544363,25.548895,25.555845,25.56236,25.571447,25.579916,25.58836,25.596216,25.60401,25.612461,25.619427,25.62818,25.635323,25.64471,25.65149,25.660471,25.666515,25.674383,25.679329,25.685724,25.68978,25.695417,25.699947,25.707136,25.714401,25.723413,25.73278,25.742565,25.754286,25.766378,25.780964,25.79264,25.80619,25.815742,25.82635,25.832775,25.838568,25.840572,25.839827,25.836567,25.832285,25.828873,25.825129,25.822388,25.818024,25.81385,25.809935,25.805897,25.801512,25.795609,25.790192,25.781929,25.774035,25.765045,25.760386,25.752224,25.745224,25.7339,25.72499,25.71545,25.71099,25.708979,25.70959,25.700245,25.694014,25.716679,25.732042,25.757294,25.64872,26.374668,24.266071,18.570671,13.7690115,13.583981,13.82176,13.759125,13.693352,13.654709,13.628641,13.633407,13.653082,13.679869,13.70367,13.715885,13.725932,13.73102,13.740278,13.7511425,13.762531,13.775121,13.784677,13.796963,13.807344,13.821508,13.831059,13.849481,13.866286,13.889584,13.905683,13.9133005,13.908428
12.454986,12.476679,12.504443,12.468029,12.12271,16.420383,22.616064,25.872677,25.121447,25.179665,25.194817,25.254007,25.285975,25.308643,25.31413,25.317526,25.318092,25.318804,25.32588,25.336098,25.354864,25.370945,25.394121,25.410595,25.43368,25.449549,25.467907,25.478083,25.493702,25.505121,25.516556,25.522888,25.529741,25.533556,25.536655,25.536623,25.534037,25.530603,25.528875,25.528345,25.528852,25.530699,25.532604,25.535442,25.537386,25.54158,25.54553,25.551056,25.55545,25.562195,25.568527,25.577385,25.58565,25.593866,25.60153,25.609175,25.6175,25.62437,25.633015,25.64007,25.649351,25.656065,25.664936,25.670887,25.678661,25.68358,25.689898,25.693884,25.699453,25.703957,25.711119,25.718357,25.72729,25.736591,25.746386,25.758154,25.770267,25.784914,25.796661,25.810354,25.82005,25.830832,25.837364,25.843294,25.845392,25.844732,25.841503,25.837261,25.83387,25.830166,25.827478,25.823195,25.819138,25.815376,25.811552,25.80742,25.801834,25.796669,25.78879,25.781258,25.772762,25.768469,25.760744,25.754007,25.74298,25.73423,25.72469,25.720045,25.717585,25.717653,25.707375,25.700413,25.723072,25.738531,25.763268,25.653109,26.357433,24.280039,18.68849,13.9739275,13.788792,14.02164,13.96374,13.900177,13.859739,13.833509,13.839542,13.860339,13.88767,13.911982,13.924443,13.935024,13.940672,13.950539,13.961939,13.973767,13.986726,13.996537,14.009138,14.019849,14.034155,14.043135,14.06356,14.084353,14.108072,14.12079,14.126221,14.121131
12.609484,12.622023,12.6466255,12.629685,12.320227,16.571266,22.669853,25.873093,25.128374,25.183733,25.199526,25.258417,25.290615,25.313402,25.319098,25.322727,25.323597,25.324593,25.331936,25.342293,25.361172,25.377306,25.400507,25.416967,25.440027,25.455868,25.474209,25.484377,25.499935,25.511274,25.522638,25.528923,25.535711,25.539463,25.542494,25.542376,25.539692,25.536129,25.534292,25.533628,25.534042,25.535759,25.537563,25.5403,25.542208,25.546328,25.55021,25.555609,25.559883,25.566454,25.57264,25.581331,25.589455,25.59751,25.605045,25.612598,25.620861,25.627687,25.636263,25.64325,25.652441,25.659105,25.667877,25.673729,25.681402,25.686281,25.692528,25.69646,25.701984,25.706469,25.71362,25.720856,25.729746,25.739014,25.748821,25.760622,25.772755,25.787447,25.79925,25.813042,25.822832,25.833733,25.840334,25.846352,25.848497,25.847878,25.844654,25.84042,25.83703,25.833336,25.830662,25.826416,25.822416,25.818724,25.815018,25.81104,25.80567,25.800686,25.793093,25.78583,25.777727,25.77374,25.766384,25.759869,25.749077,25.740433,25.7309,25.726126,25.723352,25.723045,25.712114,25.704689,25.727522,25.743214,25.767792,25.6562,26.344427,24.28747,18.76699,14.113709,13.931175,14.162748,14.10818,14.0460205,14.00416,13.977512,13.984164,14.005882,14.033992,14.058863,14.071497,14.082438,14.088421,14.098678,14.1104145,14.1224985,14.135656,14.145595,14.158367,14.169352,14.183633,14.192276,14.212097,14.232313,14.256225,14.269799,14.27558,14.270242
12.82949,12.8300495,12.850243,12.85777,12.594323,16.779036,22.744179,25.874006,25.138416,25.18993,25.206673,25.265299,25.297968,25.321012,25.327065,25.331106,25.332472,25.333916,25.341652,25.352192,25.371183,25.38736,25.41052,25.426899,25.449797,25.465488,25.483656,25.493717,25.50903,25.520132,25.53126,25.53739,25.544016,25.547651,25.550571,25.550352,25.547583,25.543917,25.541988,25.54118,25.541475,25.543003,25.544653,25.547216,25.54904,25.55302,25.556799,25.562038,25.566187,25.572575,25.578606,25.587109,25.595057,25.602896,25.610222,25.617584,25.625654,25.632338,25.640713,25.647501,25.656448,25.66296,25.671516,25.677221,25.684734,25.689535,25.695688,25.699574,25.70506,25.709532,25.716658,25.723856,25.732666,25.741873,25.751677,25.763535,25.775711,25.790527,25.802477,25.816513,25.826511,25.837667,25.844435,25.850645,25.852911,25.852398,25.849207,25.84501,25.841635,25.837952,25.835281,25.831057,25.827106,25.82349,25.819927,25.816135,25.811043,25.806314,25.799131,25.79227,25.784706,25.781103,25.774231,25.768028,25.757593,25.749134,25.73965,25.734745,25.731676,25.730978,25.719213,25.711187,25.734512,25.750734,25.775303,25.661207,26.325243,24.295761,18.875097,14.309137,14.13225,14.362826,14.311649,14.251237,14.208481,14.181858,14.189234,14.212061,14.241076,14.266609,14.279454,14.290845,14.297245,14.307967,14.320073,14.332412,14.345734,14.355764,14.368618,14.379197,14.395163,14.407713,14.427732,14.443687,14.465086,14.479317,14.485496,14.480339
12.986828,12.979773,12.997109,13.020055,12.786051,16.923035,22.795557,25.874569,25.145672,25.194666,25.21205,25.2706,25.303709,25.326992,25.333336,25.337727,25.339497,25.341297,25.34933,25.359991,25.379036,25.395208,25.418295,25.434572,25.45727,25.472782,25.49073,25.50065,25.515684,25.526533,25.537403,25.54337,25.549837,25.553377,25.556211,25.555946,25.553158,25.549477,25.54753,25.54666,25.546877,25.54827,25.549803,25.552221,25.553957,25.557814,25.5615,25.566643,25.570732,25.577026,25.582968,25.59137,25.599215,25.606913,25.614061,25.621244,25.629105,25.635641,25.643799,25.650383,25.659079,25.665422,25.67379,25.679384,25.686775,25.691507,25.697603,25.701473,25.706959,25.711437,25.718534,25.725689,25.734426,25.743576,25.753374,25.765274,25.77749,25.792427,25.804531,25.818802,25.828997,25.840397,25.847317,25.853714,25.856087,25.855679,25.85253,25.848375,25.845016,25.841337,25.838654,25.834423,25.830488,25.82691,25.823433,25.819746,25.814844,25.81029,25.803417,25.796856,25.789673,25.78631,25.779758,25.773779,25.763603,25.755287,25.745869,25.740894,25.737703,25.736828,25.724527,25.71612,25.739992,25.756752,25.7815,25.665243,26.310955,24.29976,18.949224,14.445744,14.274629,14.50536,14.455635,14.396281,14.353696,14.327511,14.335255,14.358748,14.388308,14.414236,14.4271965,14.438856,14.445501,14.456482,14.468769,14.481205,14.494554,14.504579,14.51738,14.527167,14.545393,14.563473,14.584142,14.594661,14.612491,14.627037,14.633583,14.628931
13.201817,13.187434,13.205993,13.248165,13.046028,17.115274,22.865372,25.876286,25.155533,25.200754,25.219004,25.277279,25.31086,25.334469,25.341284,25.346209,25.348604,25.350939,25.359417,25.37027,25.389395,25.405561,25.42853,25.444666,25.467098,25.482378,25.500074,25.509855,25.524612,25.535212,25.545847,25.551693,25.558062,25.561573,25.564377,25.56412,25.561375,25.557714,25.55575,25.554792,25.55491,25.556108,25.557468,25.559656,25.561243,25.564878,25.568419,25.573364,25.57732,25.583412,25.589184,25.597366,25.605015,25.61247,25.619371,25.626303,25.633917,25.640278,25.648224,25.654606,25.663078,25.66928,25.677504,25.683025,25.690353,25.695068,25.701174,25.705084,25.71062,25.715132,25.722225,25.729324,25.737955,25.747002,25.75674,25.768644,25.780867,25.795898,25.80814,25.822643,25.83304,25.844667,25.851711,25.858253,25.860712,25.860367,25.857224,25.853083,25.849735,25.846064,25.843395,25.839191,25.83532,25.831837,25.828531,25.825062,25.820501,25.816277,25.809916,25.803822,25.797222,25.794252,25.788149,25.782429,25.77248,25.764227,25.754717,25.749529,25.745983,25.744732,25.731604,25.722694,25.74745,25.7651,25.790098,25.670946,26.292006,24.305725,19.049965,14.63167,14.469733,14.70169,14.653826,14.596008,14.553944,14.528612,14.536938,14.56132,14.5915,14.617844,14.630864,14.64277,14.649663,14.660939,14.6734495,14.686,14.699395,14.709448,14.7223,14.731974,14.75092,14.770612,14.791222,14.799795,14.81618,14.830601,14.837468,14.833459
13.3653965,13.347875,13.370659,13.42523,13.24038,17.256493,22.917595,25.878399,25.163195,25.20542,25.224321,25.28234,25.316252,25.340132,25.347372,25.35277,25.355694,25.358467,25.36731,25.378323,25.397509,25.413658,25.436518,25.452534,25.474768,25.489891,25.507431,25.517143,25.531752,25.542229,25.55276,25.55858,25.564943,25.568493,25.571333,25.571136,25.568483,25.564888,25.562935,25.56192,25.561968,25.563013,25.56423,25.566208,25.567642,25.571066,25.574465,25.579214,25.583033,25.58893,25.59453,25.602503,25.60996,25.617203,25.623901,25.630632,25.63807,25.644314,25.652138,25.658417,25.666786,25.67293,25.681116,25.68664,25.69399,25.698746,25.704933,25.708918,25.714544,25.719107,25.72623,25.733301,25.74185,25.750801,25.76048,25.772354,25.784552,25.799612,25.81192,25.826548,25.837057,25.848793,25.85587,25.862448,25.864923,25.86457,25.861397,25.857244,25.853899,25.850246,25.847618,25.843472,25.839682,25.836304,25.833178,25.82992,25.825682,25.821758,25.815832,25.810135,25.80401,25.801361,25.795574,25.790005,25.780136,25.771845,25.76215,25.756725,25.752808,25.751211,25.737434,25.728168,25.753649,25.772022,25.797455,25.675709,26.276485,24.307817,19.123878,14.77131,14.618059,14.852094,14.805321,14.748652,14.707337,14.682959,14.69181,14.716868,14.747414,14.77397,14.786953,14.798944,14.805942,14.817357,14.829975,14.842554,14.855948,14.866008,14.878932,14.889042,14.907148,14.924664,14.944571,14.954623,14.971729,14.985709,14.992752,14.989302
13.570531,13.548581,13.57474,13.643545,13.480428,17.43148,22.983164,25.882189,25.173588,25.21208,25.231892,25.289785,25.32429,25.348574,25.356323,25.362288,25.365839,25.369143,25.378405,25.389595,25.408838,25.42496,25.447691,25.463575,25.485634,25.500639,25.518072,25.527744,25.54222,25.552572,25.563025,25.568832,25.57518,25.578747,25.581625,25.58151,25.578993,25.575499,25.573574,25.572506,25.572474,25.573322,25.57435,25.57603,25.577244,25.580372,25.583572,25.588053,25.591679,25.597311,25.602701,25.610401,25.617617,25.624586,25.63103,25.63752,25.644747,25.650854,25.658535,25.66469,25.672934,25.679012,25.687157,25.692677,25.700066,25.704876,25.711185,25.715294,25.721064,25.725723,25.732924,25.739998,25.748493,25.757366,25.766994,25.778852,25.791035,25.806149,25.818554,25.833324,25.843945,25.855768,25.86287,25.869453,25.871923,25.871548,25.868341,25.864174,25.860851,25.857271,25.85474,25.850723,25.847082,25.843887,25.84101,25.83805,25.83422,25.830654,25.82524,25.820004,25.814425,25.812126,25.806679,25.801254,25.7915,25.783228,25.773367,25.767672,25.763355,25.761383,25.746885,25.737162,25.763197,25.782043,25.808334,25.682602,26.254765,24.306019,19.213245,14.944998,14.803622,15.040924,14.995523,14.940124,14.899506,14.87636,14.886155,14.912228,14.943242,14.970069,14.98298,14.995074,15.002187,15.013714,15.026378,15.038924,15.052242,15.062214,15.075164,15.085668,15.10325,15.11936,15.138064,15.147929,15.164712,15.178428,15.185848,15.183177
13.74624,13.721374,13.749411,13.827836,13.680559,17.576246,23.037329,25.885487,25.1829,25.218618,25.23925,25.297146,25.332214,25.356943,25.36521,25.371716,25.375828,25.379591,25.389215,25.40055,25.41983,25.435913,25.458538,25.474314,25.496258,25.511217,25.528618,25.53829,25.552698,25.562971,25.57339,25.579203,25.58552,25.589067,25.591951,25.591898,25.589489,25.586086,25.584183,25.583061,25.582962,25.583649,25.584509,25.585922,25.586927,25.589783,25.59281,25.59705,25.600512,25.60592,25.611132,25.618607,25.625614,25.632347,25.638567,25.644852,25.651892,25.65788,25.665443,25.671503,25.679647,25.685677,25.69379,25.699308,25.706728,25.711584,25.71799,25.722195,25.72809,25.73283,25.740103,25.747202,25.755678,25.764507,25.774128,25.786,25.7982,25.813385,25.825878,25.840776,25.851505,25.863413,25.870527,25.877111,25.879564,25.879164,25.875927,25.871758,25.868464,25.864962,25.862541,25.85866,25.855164,25.852135,25.849474,25.846773,25.843275,25.839981,25.834946,25.830055,25.824858,25.822794,25.817533,25.81216,25.802439,25.794165,25.784153,25.778223,25.773598,25.771343,25.756342,25.746267,25.772575,25.791534,25.819788,25.688665,26.22715,24.290136,19.280855,15.091396,14.961765,15.202544,15.1581135,15.103709,15.063806,15.041938,15.052737,15.07978,15.111155,15.1382065,15.151048,15.163195,15.170342,15.181856,15.194432,15.206846,15.219991,15.229836,15.242638,15.253158,15.270223,15.285493,15.303146,15.3123865,15.328486,15.341858,15.349521,15.34754
13.938802,13.910891,13.940325,14.028272,13.897582,17.731928,23.093586,25.887014,25.192507,25.225954,25.24742,25.305294,25.340881,25.366186,25.375174,25.382378,25.3872,25.391535,25.4016,25.413126,25.432474,25.44853,25.47105,25.486698,25.508501,25.523378,25.5407,25.550339,25.564632,25.574785,25.585112,25.590874,25.597103,25.600574,25.6034,25.60334,25.600992,25.59763,25.5957,25.59448,25.594294,25.594799,25.595499,25.596653,25.597458,25.600056,25.602917,25.606958,25.610296,25.615524,25.620584,25.627853,25.634666,25.641178,25.647167,25.653206,25.660002,25.66582,25.67321,25.679142,25.687143,25.69307,25.701094,25.70659,25.713999,25.71886,25.725292,25.729527,25.735481,25.740267,25.74756,25.75464,25.763075,25.771875,25.7815,25.793434,25.805668,25.821066,25.833921,25.84923,25.860199,25.87217,25.879118,25.885624,25.88814,25.887766,25.884518,25.88035,25.87707,25.873615,25.871256,25.867449,25.864038,25.861126,25.858643,25.856163,25.852957,25.849913,25.845228,25.840673,25.835817,25.833927,25.82878,25.823412,25.813644,25.805298,25.795063,25.788887,25.783962,25.781466,25.765896,25.755442,25.782316,25.80163,25.8336,25.694181,26.184786,24.254873,19.345064,15.25034,15.134184,15.37861,15.335208,15.281943,15.242955,15.222495,15.234274,15.262304,15.294068,15.321369,15.3341465,15.346341,15.353498,15.36497,15.377417,15.389647,15.40257,15.412366,15.4248,15.434649,15.451098,15.46626,15.48362,15.492537,15.507895,15.520537,15.5282,15.526898
14.131855,14.103483,14.132366,14.226693,14.110084,17.882748,23.146948,25.887642,25.202435,25.234413,25.256708,25.314507,25.350449,25.376385,25.386213,25.394156,25.399687,25.404572,25.415045,25.426737,25.446115,25.462112,25.48448,25.49998,25.52163,25.536438,25.553692,25.563305,25.577497,25.587547,25.597795,25.60351,25.609623,25.61298,25.615702,25.615593,25.613266,25.609905,25.607918,25.606588,25.606316,25.606659,25.607214,25.608133,25.608751,25.611116,25.613836,25.617695,25.620909,25.625963,25.630867,25.637932,25.64454,25.65083,25.656586,25.662378,25.668938,25.674585,25.681822,25.68766,25.695549,25.701376,25.709316,25.714787,25.722155,25.726982,25.733366,25.737558,25.743494,25.748283,25.755556,25.762608,25.771008,25.779804,25.789473,25.80151,25.813925,25.82938,25.842,25.857264,25.86848,25.880917,25.888268,25.895075,25.897604,25.897257,25.894022,25.889883,25.886625,25.88323,25.880941,25.877209,25.873877,25.87106,25.86871,25.866413,25.863438,25.860569,25.85612,25.8518,25.84716,25.845362,25.840229,25.834799,25.824917,25.816465,25.805992,25.799574,25.794285,25.7915,25.775652,25.765066,25.792118,25.811256,25.848743,25.69875,26.129301,24.200214,19.39908,15.408647,15.306626,15.554248,15.511386,15.45939,15.422049,15.403566,15.416446,15.445514,15.477602,15.50527,15.518139,15.530404,15.537472,15.548769,15.560916,15.57281,15.585351,15.595008,15.606796,15.615477,15.631095,15.646418,15.663807,15.67259,15.686985,15.698394,15.705644,15.704893
14.308853,14.282866,14.309934,14.408259,14.303277,18.019552,23.195845,25.888865,25.211998,25.242695,25.265812,25.323524,25.359737,25.386274,25.396898,25.405499,25.411627,25.416964,25.427752,25.43955,25.458887,25.474766,25.496922,25.512253,25.53374,25.548494,25.565702,25.575315,25.589462,25.599466,25.609716,25.615442,25.621504,25.624784,25.627464,25.627352,25.625072,25.621737,25.619705,25.618294,25.617971,25.618187,25.61862,25.619328,25.619774,25.621923,25.624508,25.628155,25.631197,25.636013,25.64072,25.64751,25.653868,25.65988,25.665382,25.670937,25.6773,25.68282,25.689974,25.695778,25.70364,25.709444,25.717373,25.722847,25.730213,25.735035,25.741379,25.745531,25.751448,25.756247,25.763514,25.770565,25.77896,25.787779,25.797472,25.809645,25.822584,25.837854,25.849104,25.863361,25.874739,25.888124,25.896648,25.904224,25.906624,25.906233,25.903008,25.898893,25.895678,25.892387,25.890215,25.886627,25.883425,25.880732,25.878525,25.87642,25.873646,25.87091,25.866623,25.862452,25.85795,25.85622,25.851086,25.845581,25.835606,25.827099,25.816439,25.809805,25.80407,25.800909,25.785072,25.774597,25.801228,25.81947,25.862024,25.702265,26.076773,24.14805,19.447542,15.553659,15.464615,15.714853,15.672015,15.62136,15.586291,15.570251,15.584302,15.614429,15.646782,15.674907,15.688003,15.700383,15.707331,15.718406,15.730183,15.741683,15.753758,15.763148,15.77426,15.781969,15.796675,15.81173,15.828885,15.837652,15.850984,15.860898,15.867402,15.867039
14.515061,14.492887,14.516454,14.617521,14.524738,18.175514,23.25099,25.890207,25.224133,25.253983,25.277946,25.335339,25.371536,25.3986,25.410042,25.419262,25.425943,25.431715,25.442785,25.454664,25.473923,25.489655,25.511576,25.526731,25.548069,25.562796,25.579979,25.589592,25.603683,25.61362,25.623833,25.629524,25.63543,25.638529,25.641058,25.640852,25.638556,25.63518,25.633047,25.631512,25.631128,25.63121,25.631508,25.631985,25.632238,25.634169,25.636631,25.640072,25.642944,25.647549,25.652086,25.658657,25.66482,25.670605,25.675903,25.681278,25.687487,25.692911,25.699987,25.70577,25.713589,25.71934,25.727192,25.73261,25.739872,25.744602,25.75078,25.7548,25.76059,25.76533,25.772516,25.779526,25.787897,25.79675,25.806551,25.81878,25.831846,25.846558,25.856388,25.869675,25.881153,25.895851,25.906214,25.91503,25.917286,25.916899,25.913752,25.909737,25.906593,25.90343,25.901377,25.897934,25.894846,25.892233,25.890121,25.888178,25.88559,25.882967,25.878809,25.874754,25.870375,25.868717,25.863565,25.857965,25.847858,25.83926,25.828375,25.821495,25.815142,25.811462,25.795958,25.785933,25.811659,25.828527,25.878696,25.707184,26.010012,24.078691,19.501448,15.72536,15.650565,15.902544,15.859403,15.810286,15.77816,15.765207,15.780691,15.812034,15.844606,15.873398,15.886946,15.899479,15.906155,15.916807,15.927965,15.938862,15.950267,15.959284,15.969464,15.9758415,15.989224,16.003786,16.020527,16.029257,16.041374,16.049614,16.055424,16.055508
14.678562,14.6585045,14.6789665,14.782229,14.69948,18.29871,23.294468,25.891495,25.234379,25.26379,25.28837,25.345373,25.381342,25.408648,25.420603,25.43019,25.437214,25.443274,25.454533,25.466455,25.48566,25.501316,25.523106,25.53815,25.559416,25.57415,25.591341,25.600952,25.61498,25.624826,25.634949,25.640541,25.646233,25.64909,25.651407,25.651041,25.648668,25.645205,25.642954,25.641287,25.640846,25.64082,25.641016,25.641321,25.641436,25.643225,25.645628,25.64897,25.651773,25.656307,25.660816,25.66735,25.673483,25.67921,25.684444,25.689762,25.695915,25.701286,25.708302,25.714035,25.721754,25.72741,25.735107,25.74042,25.7475,25.752085,25.758047,25.761906,25.767523,25.77217,25.779228,25.786161,25.794481,25.80334,25.81329,25.82547,25.838127,25.852282,25.861702,25.874863,25.886381,25.902094,25.914013,25.923817,25.92586,25.925472,25.922462,25.918583,25.9155,25.912418,25.910408,25.907011,25.903936,25.901306,25.899197,25.897322,25.894835,25.89228,25.888212,25.88424,25.87995,25.878359,25.873184,25.867495,25.85724,25.848534,25.837433,25.830345,25.823463,25.819351,25.804132,25.794533,25.81951,25.835468,25.891684,25.712648,25.96394,24.033133,19.549732,15.862881,15.798935,16.052217,16.00881,15.960769,15.930782,15.920132,15.936734,15.969,16.001736,16.031113,16.045097,16.05775,16.064144,16.074371,16.084953,16.09517,16.106232,16.115911,16.125679,16.130033,16.14153,16.15575,16.17221,16.180845,16.19212,16.199265,16.204996,16.205614
14.893225,14.876161,14.892568,14.997368,14.92577,18.456308,23.347942,25.891308,25.247892,25.277561,25.3026,25.358923,25.39441,25.421982,25.434614,25.44464,25.45208,25.458492,25.469992,25.481977,25.501116,25.516647,25.538269,25.553202,25.574377,25.5891,25.606266,25.615856,25.62978,25.63949,25.649445,25.654846,25.660208,25.66271,25.6647,25.664074,25.66155,25.657923,25.655481,25.653622,25.653095,25.652908,25.652966,25.653025,25.652937,25.654503,25.656794,25.659967,25.662653,25.66707,25.671522,25.677994,25.684086,25.689766,25.694948,25.700209,25.706295,25.711615,25.718565,25.724264,25.731863,25.737387,25.74487,25.750021,25.756819,25.761179,25.766796,25.770395,25.775724,25.780205,25.78707,25.79389,25.80214,25.811016,25.821257,25.833242,25.844692,25.857761,25.867125,25.880571,25.892153,25.908836,25.922184,25.933334,25.935823,25.935856,25.932953,25.929243,25.926258,25.923304,25.921377,25.918066,25.915035,25.912416,25.910347,25.908583,25.906256,25.903816,25.899908,25.896091,25.891983,25.89052,25.885416,25.8797,25.869354,25.860548,25.849232,25.841919,25.834385,25.82976,25.815277,25.806581,25.830572,25.845173,25.914488,25.718798,25.867584,23.921017,19.590893,16.049486,15.99775,16.248966,16.205338,16.158745,16.13147,16.12371,16.141703,16.175007,16.207804,16.237896,16.25248,16.265236,16.271189,16.280794,16.290562,16.300434,16.310095,16.31669,16.324333,16.329521,16.341516,16.35497,16.370573,16.378906,16.389221,16.39532,16.400764,16.401674
15.050448,15.035881,15.049471,15.15499,15.090824,18.570066,23.384789,25.889395,25.25728,25.287617,25.3128,25.368584,25.403694,25.431522,25.444735,25.455128,25.462902,25.469603,25.481308,25.493368,25.512474,25.527895,25.549389,25.564249,25.585354,25.600048,25.61717,25.626728,25.640566,25.650173,25.65999,25.66523,25.670338,25.672575,25.674316,25.673485,25.67083,25.667063,25.66448,25.662464,25.661865,25.661558,25.6615,25.661366,25.661106,25.662468,25.664642,25.66764,25.6702,25.674479,25.678846,25.685215,25.691235,25.696852,25.701982,25.70718,25.713198,25.718468,25.725378,25.73107,25.73861,25.744051,25.75139,25.756426,25.763023,25.767216,25.772568,25.775955,25.781057,25.785414,25.792131,25.798887,25.807093,25.815998,25.826553,25.838297,25.848372,25.86028,25.86973,25.883635,25.895456,25.91271,25.926615,25.938763,25.942112,25.942736,25.939812,25.936193,25.933275,25.930428,25.928589,25.925365,25.922398,25.91983,25.917835,25.916191,25.914019,25.911686,25.907946,25.904299,25.900398,25.899075,25.894104,25.88845,25.878143,25.869324,25.857925,25.85049,25.842546,25.83762,25.823927,25.816135,25.839495,25.853018,25.935759,25.722412,25.76916,23.798134,19.603,16.189741,16.145704,16.39281,16.349176,16.303732,16.278397,16.272665,16.29158,16.325506,16.35825,16.3888,16.403814,16.416595,16.422169,16.43129,16.440443,16.450642,16.458345,16.458742,16.463255,16.472555,16.487957,16.500591,16.515167,16.523178,16.53285,16.538368,16.543364,16.544222
15.270043,15.25872,15.268801,15.372596,15.314123,18.722244,23.434628,25.888294,25.272335,25.303942,25.32903,25.383846,25.418177,25.44609,25.459866,25.470558,25.478607,25.485563,25.49743,25.509516,25.528505,25.543749,25.56504,25.579805,25.600786,25.615404,25.632437,25.641932,25.655643,25.66511,25.674717,25.679726,25.684484,25.686373,25.687786,25.686687,25.683859,25.679905,25.67712,25.6749,25.674208,25.673733,25.673523,25.673111,25.672617,25.673695,25.67571,25.678463,25.680847,25.684942,25.68921,25.695477,25.701443,25.70703,25.712147,25.717316,25.723303,25.728556,25.735443,25.741125,25.74858,25.753899,25.76102,25.765873,25.772165,25.7761,25.781067,25.784159,25.788921,25.793074,25.799562,25.806198,25.814306,25.823198,25.833973,25.845537,25.854494,25.86564,25.875675,25.889858,25.900923,25.91796,25.932377,25.945942,25.950802,25.952484,25.949585,25.946192,25.943443,25.940825,25.939157,25.93612,25.933277,25.930828,25.928953,25.927475,25.9255,25.92331,25.919754,25.916286,25.912588,25.911388,25.906525,25.900913,25.89058,25.881683,25.870098,25.862453,25.853834,25.848383,25.835678,25.82901,25.851233,25.862902,25.964224,25.725422,25.627022,23.62161,19.61925,16.388361,16.354345,16.59475,16.550987,16.506994,16.484255,16.481419,16.501822,16.536715,16.569351,16.600487,16.616064,16.628973,16.634172,16.642706,16.651054,16.661098,16.66708,16.663073,16.664972,16.676403,16.69329,16.704874,16.718136,16.725517,16.734455,16.739574,16.74376,16.743956
15.424127,15.414916,15.422803,15.52356,15.465965,18.824541,23.468521,25.888582,25.284197,25.316927,25.341757,25.395763,25.429384,25.45717,25.47116,25.481907,25.49002,25.497057,25.508953,25.520998,25.53986,25.554966,25.576107,25.5908,25.611677,25.62622,25.64317,25.65262,25.666237,25.675606,25.685059,25.689903,25.694431,25.696087,25.697292,25.696018,25.69308,25.689005,25.68608,25.683723,25.682978,25.682398,25.682087,25.68149,25.680832,25.681728,25.68364,25.68623,25.688494,25.692465,25.69668,25.7029,25.70887,25.714468,25.719616,25.724808,25.730822,25.7361,25.74299,25.748672,25.75606,25.761292,25.76824,25.772947,25.778996,25.782736,25.78742,25.790306,25.79481,25.798801,25.80511,25.811646,25.819653,25.828508,25.83929,25.850847,25.859613,25.870846,25.881641,25.895725,25.90538,25.921532,25.936232,25.950865,25.956953,25.959518,25.95668,25.953512,25.95093,25.948536,25.947021,25.944153,25.941427,25.939075,25.937284,25.935928,25.93407,25.93196,25.92849,25.925098,25.921474,25.920315,25.915468,25.90985,25.899439,25.890442,25.878687,25.870867,25.8617,25.855797,25.843668,25.837654,25.858887,25.869005,25.98277,25.726114,25.527065,23.498755,19.631899,16.528831,16.501583,16.737011,16.693068,16.649994,16.629004,16.628267,16.64987,16.68554,16.7181,16.74962,16.765574,16.778643,16.783686,16.791868,16.799679,16.809113,16.814678,16.810965,16.812418,16.822422,16.83772,16.848642,16.861094,16.867903,16.876427,16.881554,16.885036,16.884352
15.641081,15.634429,15.639608,15.735172,15.676881,18.96724,23.518768,25.892572,25.302883,25.336607,25.361076,25.413704,25.446114,25.473629,25.487892,25.498657,25.50677,25.513819,25.525652,25.53759,25.556211,25.571075,25.591955,25.606524,25.627245,25.641687,25.658503,25.667868,25.681316,25.690512,25.699709,25.704287,25.708458,25.709768,25.710646,25.709106,25.70601,25.70175,25.69863,25.696022,25.695112,25.694277,25.69377,25.692814,25.691854,25.692387,25.694086,25.696417,25.698536,25.702349,25.706495,25.712675,25.718674,25.724339,25.729574,25.734827,25.740889,25.746202,25.753105,25.758785,25.766094,25.771215,25.777967,25.782516,25.788303,25.791832,25.796207,25.79887,25.803076,25.80685,25.812899,25.819246,25.82711,25.835846,25.846334,25.85779,25.866837,25.878538,25.889809,25.90389,25.913004,25.928305,25.942196,25.957457,25.965313,25.969147,25.966438,25.963621,25.96128,25.959204,25.957909,25.955301,25.95278,25.95064,25.949059,25.947948,25.94636,25.944458,25.941217,25.938007,25.934504,25.933357,25.92845,25.922752,25.912123,25.902895,25.890741,25.882559,25.87253,25.866007,25.854912,25.85011,25.870035,25.878098,26.011211,25.7282,25.378399,23.31439,19.648327,16.733538,16.713858,16.939909,16.895609,16.853336,16.834158,16.836252,16.859997,16.89676,16.928905,16.960762,16.977175,16.99048,16.995413,17.00325,17.010519,17.019428,17.024527,17.020765,17.021595,17.030415,17.044298,17.054468,17.065994,17.07219,17.080141,17.085089,17.088198,17.087185
15.7943125,15.789127,15.792704,15.883781,15.823331,19.066626,23.55591,25.898,25.317596,25.351639,25.375835,25.427303,25.458702,25.485945,25.500368,25.511095,25.519135,25.526121,25.537828,25.549656,25.568064,25.582724,25.603384,25.617857,25.638454,25.652822,25.669537,25.678825,25.69213,25.701183,25.71017,25.714539,25.718445,25.719505,25.720137,25.718401,25.71519,25.710802,25.707544,25.704725,25.703642,25.70255,25.701862,25.700588,25.699366,25.699564,25.70107,25.7032,25.705229,25.70894,25.713041,25.719204,25.72524,25.73099,25.73632,25.741636,25.74774,25.753082,25.75999,25.765678,25.77294,25.77799,25.784632,25.789106,25.79476,25.798182,25.802402,25.80495,25.808985,25.812618,25.818468,25.824656,25.832405,25.841013,25.851086,25.862432,25.872074,25.884378,25.8956,25.90975,25.919415,25.934322,25.946787,25.961882,25.97104,25.97581,25.973225,25.970678,25.968515,25.96667,25.965536,25.963135,25.960789,25.958845,25.957476,25.956596,25.955269,25.953575,25.950556,25.947517,25.944101,25.942917,25.937895,25.932093,25.921223,25.911766,25.899218,25.890697,25.879992,25.873037,25.862804,25.859032,25.878067,25.884739,26.032839,25.730204,25.26688,23.17505,19.658716,16.88349,16.86766,17.085264,17.040592,16.998705,16.980648,16.984634,17.009905,17.047308,17.078987,17.110928,17.127611,17.141094,17.146042,17.153755,17.160795,17.169537,17.174442,17.170576,17.171066,17.179413,17.192673,17.202452,17.21349,17.219374,17.226955,17.231693,17.234724,17.233791
16.003227,15.999719,16.0012,16.086308,16.023027,19.202127,23.60641,25.90511,25.337267,25.371664,25.395489,25.445444,25.475567,25.502497,25.517197,25.527939,25.535986,25.542978,25.554638,25.566397,25.584612,25.599052,25.61949,25.633873,25.654333,25.668608,25.685184,25.694378,25.707542,25.716473,25.725248,25.729399,25.733047,25.733873,25.734274,25.732357,25.72905,25.724533,25.721123,25.718052,25.716759,25.715351,25.714428,25.712742,25.71117,25.710932,25.71217,25.714016,25.715914,25.719442,25.723455,25.729578,25.735651,25.741442,25.746803,25.752098,25.758171,25.763521,25.770437,25.776138,25.78334,25.788298,25.794779,25.799135,25.804588,25.80786,25.811844,25.814207,25.817972,25.821388,25.82697,25.832928,25.840351,25.848755,25.858797,25.870296,25.880165,25.892685,25.903944,25.918213,25.928286,25.942564,25.953331,25.96845,25.979462,25.985514,25.983028,25.980797,25.978857,25.977308,25.976397,25.974257,25.972132,25.970455,25.969349,25.968735,25.96765,25.966125,25.963253,25.960346,25.956915,25.955578,25.950306,25.944328,25.933147,25.923435,25.910406,25.901453,25.8899,25.882387,25.873074,25.870365,25.888105,25.892813,26.062248,25.73073,25.103336,22.970072,19.6675,17.091425,17.080362,17.285254,17.239485,17.201263,17.190193,17.196375,17.218136,17.253956,17.285902,17.318047,17.335045,17.348814,17.353857,17.36142,17.36813,17.376656,17.38119,17.376883,17.376684,17.384417,17.396904,17.406157,17.416534,17.42199,17.429407,17.434418,17.433155,17.426634
16.16101,16.158382,16.15851,16.23924,16.173752,19.304245,23.644213,25.910292,25.352228,25.386997,25.4105,25.459381,25.48862,25.51534,25.530256,25.54103,25.549112,25.556135,25.567783,25.579517,25.597624,25.611925,25.632215,25.64654,25.666899,25.681091,25.697556,25.706675,25.719751,25.728613,25.737267,25.7413,25.744816,25.74554,25.74584,25.743856,25.740538,25.735981,25.732496,25.729277,25.727844,25.726215,25.72512,25.723131,25.721298,25.72073,25.721756,25.723381,25.72517,25.72855,25.732464,25.738506,25.744553,25.75035,25.75573,25.761007,25.767048,25.772377,25.779263,25.784935,25.792068,25.796946,25.803308,25.807568,25.81288,25.816042,25.819857,25.822075,25.825632,25.82887,25.834223,25.84,25.847181,25.85547,25.865667,25.877316,25.887024,25.899384,25.910662,25.925043,25.935368,25.94919,25.958775,25.973991,25.986414,25.993433,25.990997,25.988987,25.987213,25.985888,25.985146,25.9832,25.981245,25.979778,25.978868,25.978437,25.977486,25.976034,25.973188,25.970324,25.96679,25.965263,25.959738,25.9536,25.942167,25.932272,25.918886,25.909603,25.897432,25.88948,25.880594,25.878382,25.895035,25.89823,26.083921,25.729975,24.975922,22.811148,19.674665,17.252642,17.244251,17.43843,17.391531,17.35765,17.354597,17.36219,17.37844,17.411766,17.44432,17.476542,17.49364,17.507607,17.512785,17.520271,17.526773,17.535198,17.539436,17.53465,17.533854,17.541224,17.553259,17.562183,17.572157,17.577364,17.584705,17.589924,17.583508,17.570374
16.357986,16.356287,16.355011,16.43101,16.363638,19.432024,23.688986,25.914492,25.370943,25.407118,25.430073,25.477854,25.50616,25.53265,25.547739,25.558496,25.56651,25.573462,25.58496,25.596554,25.614426,25.628517,25.648548,25.662727,25.682877,25.696928,25.713207,25.722206,25.735088,25.743792,25.75224,25.756104,25.759422,25.759996,25.76016,25.758121,25.75484,25.750315,25.746798,25.743465,25.741919,25.740078,25.738811,25.736475,25.734325,25.733364,25.734152,25.735512,25.73717,25.740465,25.744337,25.750036,25.755795,25.761675,25.767382,25.773027,25.779268,25.784481,25.791061,25.796484,25.803347,25.80809,25.814302,25.818487,25.823658,25.826706,25.830336,25.832401,25.83572,25.83875,25.843737,25.849277,25.856651,25.865118,25.87486,25.885948,25.89548,25.907831,25.919134,25.933645,25.944252,25.957687,25.966139,25.98165,25.995716,26.003923,26.001635,25.999977,25.998451,25.997433,25.996904,25.99522,25.993484,25.99227,25.9916,25.991392,25.990643,25.989334,25.98659,25.983797,25.98018,25.978477,25.972681,25.966373,25.954597,25.94439,25.930504,25.920794,25.907766,25.89912,25.890366,25.888369,25.903477,25.90483,26.10821,25.730001,24.83585,22.641064,19.698399,17.454865,17.4494,17.63091,17.583,17.551533,17.553406,17.563099,17.577623,17.610088,17.642527,17.674442,17.69136,17.705343,17.710617,17.717754,17.724264,17.734072,17.738863,17.732424,17.729778,17.73678,17.748497,17.757082,17.76667,17.771711,17.778488,17.783102,17.774813,17.759867
16.524553,16.523224,16.52113,16.594156,16.526392,19.541132,23.725256,25.916311,25.386883,25.424986,25.447382,25.494413,25.522062,25.548378,25.563553,25.574242,25.582119,25.588924,25.600203,25.611603,25.629194,25.643057,25.662802,25.676804,25.69671,25.7106,25.726686,25.735561,25.748238,25.756771,25.765034,25.76877,25.771942,25.772419,25.772503,25.770473,25.767296,25.762875,25.759388,25.756016,25.754414,25.752422,25.75102,25.748394,25.745975,25.744677,25.745258,25.746387,25.74793,25.751059,25.754786,25.760157,25.765694,25.771656,25.777681,25.7837,25.790188,25.795368,25.801737,25.806948,25.81356,25.818163,25.824207,25.828285,25.833324,25.836296,25.839815,25.841803,25.844967,25.847845,25.85248,25.857828,25.865734,25.874594,25.883532,25.893608,25.902914,25.915304,25.926619,25.941233,25.952015,25.965363,25.973368,25.989218,26.004251,26.01327,26.011208,26.009901,26.00859,26.00785,26.007513,26.006073,26.004553,26.003588,26.00316,26.00318,26.002647,26.001505,25.998896,25.996193,25.992546,25.990719,25.984726,25.978289,25.966213,25.955719,25.941395,25.931322,25.917532,25.908213,25.899214,25.897036,25.910654,25.910501,26.125584,25.731594,24.741648,22.53341,19.738194,17.628191,17.62372,17.794962,17.746952,17.716309,17.719604,17.731096,17.746729,17.779535,17.811373,17.842678,17.859152,17.872988,17.878347,17.885548,17.89179,17.900566,17.904669,17.89875,17.896635,17.903473,17.9149,17.923336,17.932865,17.93814,17.943226,17.94517,17.937923,17.926584
16.705004,16.703743,16.700994,16.771347,16.703701,19.660467,23.76537,25.918802,25.404507,25.444633,25.466492,25.512716,25.539639,25.56578,25.581055,25.59165,25.599354,25.605993,25.617012,25.628193,25.645432,25.658995,25.678373,25.692156,25.711773,25.725475,25.741331,25.750067,25.762533,25.770908,25.778992,25.782614,25.78566,25.786066,25.786102,25.784107,25.781048,25.776733,25.773268,25.769808,25.768091,25.765842,25.764217,25.761192,25.758438,25.756691,25.756979,25.757914,25.75941,25.761942,25.765045,25.770376,25.776218,25.782219,25.788202,25.79415,25.800722,25.806223,25.812939,25.81833,25.824879,25.829235,25.83485,25.838566,25.84337,25.846378,25.849878,25.85182,25.854876,25.857609,25.861853,25.86699,25.875645,25.885069,25.893017,25.901815,25.910843,25.923286,25.934616,25.949331,25.960222,25.973667,25.981647,25.997795,26.013283,26.022818,26.021053,26.020107,26.019012,26.018566,26.018465,26.017323,26.016083,26.01547,26.0154,26.015759,26.015543,26.014637,26.01223,26.00968,26.006031,26.00407,25.99785,25.991253,25.978882,25.968136,25.953375,25.942907,25.928352,25.918356,25.9091,25.906698,25.91869,25.917006,26.143167,25.734905,24.653902,22.437586,19.79266,17.817015,17.812012,17.972256,17.925127,17.896414,17.9017,17.914885,17.930912,17.96367,17.994915,18.02555,18.041563,18.055305,18.06086,18.069462,18.07417,18.073463,18.072218,18.073767,18.079561,18.08629,18.09669,18.104822,18.11551,18.123474,18.12429,18.11742,18.110243,18.106434
16.884083,16.88265,16.879242,16.948473,16.88334,19.781763,23.80471,25.919706,25.421509,25.464016,25.485317,25.530697,25.556803,25.582743,25.598104,25.60858,25.616085,25.622559,25.633312,25.644274,25.66115,25.6744,25.693403,25.706972,25.726303,25.739817,25.755453,25.764067,25.776363,25.784622,25.792576,25.796125,25.7991,25.799496,25.799541,25.797636,25.794735,25.79057,25.787172,25.7837,25.781927,25.779503,25.777699,25.774347,25.771313,25.769197,25.769234,25.769814,25.771027,25.772953,25.775599,25.781027,25.787226,25.793198,25.798979,25.804674,25.81121,25.817022,25.824167,25.829817,25.836508,25.840841,25.846302,25.84985,25.854376,25.85715,25.860537,25.86253,25.86555,25.868196,25.872211,25.877216,25.886328,25.89604,25.90323,25.911095,25.9199,25.932375,25.943724,25.958529,25.969486,25.983194,25.991537,26.007833,26.02313,26.032913,26.031656,26.031122,26.030188,26.030024,26.030159,26.029316,26.028362,26.028118,26.028433,26.029156,26.029287,26.028633,26.02647,26.024107,26.020546,26.018536,26.012188,26.005491,25.992907,25.981968,25.966839,25.956017,25.940687,25.929989,25.92056,25.918037,25.928343,25.925068,26.15746,25.741695,24.60321,22.39512,19.87313,18.004034,17.99695,18.14767,18.102404,18.076067,18.08287,18.097517,18.114029,18.146742,18.177326,18.207092,18.222427,18.235962,18.241705,18.25176,18.25496,18.244637,18.237955,18.247047,18.260908,18.267658,18.277306,18.285852,18.295778,18.302351,18.299255,18.288162,18.282948,18.28544
17.048101,17.046537,17.042248,17.11121,17.049906,19.894068,23.83944,25.918394,25.435753,25.480667,25.501362,25.545835,25.571056,25.596764,25.612228,25.62261,25.629984,25.636356,25.64695,25.657755,25.67438,25.687407,25.706165,25.719604,25.738752,25.752138,25.767641,25.776205,25.788424,25.796633,25.804539,25.808071,25.811026,25.811441,25.811537,25.809752,25.807016,25.803034,25.799742,25.79636,25.79465,25.792225,25.790367,25.786854,25.78365,25.781431,25.78148,25.78143,25.781858,25.783607,25.78656,25.79204,25.798183,25.80412,25.809849,25.81549,25.821983,25.827757,25.83492,25.840576,25.847536,25.852299,25.85826,25.862135,25.866259,25.868124,25.871151,25.87343,25.87652,25.879097,25.882965,25.887806,25.896807,25.906435,25.913467,25.921196,25.929922,25.94239,25.95377,25.96869,25.979752,25.99368,26.002268,26.01855,26.033543,26.043594,26.042984,26.042898,26.04206,26.042126,26.042454,26.04185,26.04112,26.041151,26.041744,26.04275,26.04315,26.042694,26.040733,26.038536,26.035109,26.033144,26.026796,26.020063,26.00733,25.996212,25.980751,25.96961,25.953466,25.942028,25.932613,25.930214,25.938951,25.93403,26.169512,25.749908,24.574997,22.382214,19.959135,18.174212,18.165245,18.308361,18.26491,18.240814,18.248991,18.264894,18.28176,18.314548,18.344728,18.373545,18.387941,18.400892,18.40684,18.418432,18.422323,18.409529,18.400497,18.410137,18.424992,18.431786,18.441704,18.451824,18.456768,18.453278,18.44954,18.447586,18.447361,18.449133
17.240223,17.238829,17.233189,17.303267,17.248999,20.029535,23.88158,25.917233,25.453207,25.501102,25.521202,25.564604,25.588697,25.614079,25.629608,25.639818,25.646961,25.653152,25.663477,25.674046,25.690308,25.703024,25.721418,25.73465,25.753506,25.766685,25.781961,25.790405,25.802464,25.810572,25.818367,25.821844,25.824755,25.82518,25.82533,25.823683,25.821133,25.817368,25.814209,25.81098,25.80939,25.807032,25.80515,25.80154,25.798237,25.795736,25.79548,25.794756,25.794594,25.796265,25.79951,25.804895,25.810802,25.816582,25.8222,25.82775,25.834116,25.839708,25.846722,25.852283,25.859436,25.864578,25.871115,25.875463,25.879608,25.881031,25.883673,25.885794,25.888748,25.891352,25.89562,25.900753,25.909077,25.917849,25.924837,25.93279,25.94146,25.953869,25.965252,25.980251,25.9914,26.005548,26.014416,26.030602,26.045122,26.055454,26.055653,26.056118,26.055397,26.055733,26.05629,26.055975,26.05551,26.055859,26.056776,26.058094,26.058804,26.058577,26.056864,26.054867,26.051638,26.049776,26.04353,26.03685,26.024084,26.012861,25.997189,25.985798,25.96885,25.956648,25.94751,25.945469,25.95239,25.945498,26.180712,25.762066,24.5717,22.409555,20.07899,18.369629,18.358086,18.493921,18.452812,18.431591,18.441488,18.458874,18.476048,18.508501,18.537773,18.565548,18.579247,18.592258,18.598082,18.606884,18.6091,18.599396,18.593332,18.60176,18.615036,18.621931,18.632483,18.644289,18.644444,18.631004,18.627201,18.635105,18.63905,18.638384
17.393753,17.392746,17.385998,17.457354,17.409328,20.139114,23.91614,25.917074,25.468092,25.518465,25.53813,25.580784,25.60405,25.629139,25.644623,25.654617,25.661472,25.667412,25.677408,25.687716,25.703585,25.715975,25.733961,25.746948,25.765469,25.778421,25.793415,25.801691,25.813519,25.821468,25.829092,25.832474,25.835289,25.835693,25.835857,25.834307,25.8319,25.82831,25.825262,25.822145,25.820652,25.818327,25.816418,25.812746,25.809412,25.80635,25.80536,25.804317,25.804321,25.805895,25.80894,25.814114,25.819832,25.825418,25.83087,25.836273,25.842503,25.84797,25.854866,25.860357,25.86745,25.872538,25.879208,25.883783,25.888523,25.890575,25.892944,25.89415,25.896614,25.899359,25.904636,25.91069,25.918266,25.92577,25.932537,25.940632,25.949226,25.96157,25.972925,25.987938,25.999117,26.013382,26.022417,26.038628,26.05299,26.063541,26.064177,26.065012,26.064444,26.065037,26.06582,26.06578,26.065569,26.066223,26.067442,26.069044,26.070032,26.070011,26.068518,26.066689,26.063625,26.061844,26.055706,26.049118,26.036417,26.025202,26.009493,25.998014,25.98062,25.967968,25.959152,25.957418,25.962921,25.954506,26.188658,25.772198,24.576263,22.441547,20.17866,18.523605,18.509933,18.640358,18.601072,18.582258,18.59374,18.612417,18.629787,18.661543,18.689703,18.717619,18.732271,18.7471,18.75249,18.753073,18.748974,18.744453,18.745462,18.754189,18.766533,18.773188,18.784842,18.799227,18.79907,18.782135,18.77632,18.784853,18.78893,18.78808
17.596077,17.595957,17.587181,17.661442,17.624056,20.288555,23.966618,25.920595,25.48981,25.54296,25.562496,25.603994,25.625896,25.650618,25.666185,25.67598,25.68253,25.688192,25.69778,25.707745,25.723095,25.735073,25.752518,25.765162,25.783192,25.795805,25.810387,25.818417,25.829899,25.837614,25.84498,25.848213,25.850895,25.85126,25.8514,25.849905,25.847593,25.844124,25.84115,25.838099,25.836658,25.83431,25.832325,25.828537,25.825142,25.821537,25.819857,25.818483,25.818586,25.819931,25.822645,25.827484,25.832935,25.838242,25.843445,25.848635,25.85466,25.85996,25.866693,25.872074,25.87905,25.884014,25.890705,25.895397,25.900816,25.903719,25.906319,25.907091,25.909336,25.912107,25.917881,25.924244,25.93078,25.93698,25.943495,25.951744,25.96023,25.972454,25.983734,25.998722,26.009907,26.024319,26.033628,26.049557,26.063173,26.074013,26.075735,26.077269,26.07681,26.077665,26.078646,26.078869,26.078905,26.07986,26.081385,26.083267,26.084528,26.08472,26.083462,26.08183,26.078945,26.077238,26.07121,26.064722,26.052118,26.040941,26.02521,26.013624,25.995619,25.982372,25.974155,25.973034,25.976704,25.966303,26.19647,25.786812,24.602613,22.512838,20.32255,18.722904,18.70649,18.831106,18.794258,18.778631,18.792183,18.812454,18.829948,18.860859,18.887379,18.912266,18.92415,18.937609,18.942188,18.93809,18.932302,18.934645,18.943058,18.952175,18.963633,18.97139,18.981066,18.99003,18.98901,18.977196,18.97354,18.980074,18.983095,18.982267
17.743904,17.744549,17.734,17.811007,17.782637,20.400627,24.006847,25.92584,25.507034,25.56181,25.581556,25.622047,25.642744,25.667221,25.682999,25.692741,25.69916,25.704697,25.714048,25.72379,25.7388,25.750505,25.767591,25.779997,25.797674,25.810026,25.82431,25.832176,25.843422,25.850971,25.858152,25.861277,25.863869,25.864191,25.86429,25.862772,25.860449,25.856966,25.853977,25.850883,25.849411,25.846972,25.844887,25.840965,25.83748,25.833704,25.831877,25.830273,25.83019,25.831284,25.833803,25.838402,25.843655,25.848757,25.85379,25.858814,25.86469,25.869873,25.876493,25.881794,25.888699,25.893623,25.900288,25.904932,25.910627,25.913963,25.917238,25.918528,25.92103,25.923616,25.928904,25.934603,25.940346,25.945992,25.952374,25.960686,25.969088,25.981216,25.99243,26.00739,26.018581,26.033117,26.042685,26.058193,26.070858,26.081911,26.084814,26.087023,26.086569,26.08755,26.088606,26.088942,26.089094,26.090199,26.091871,26.093887,26.09528,26.09558,26.094437,26.092909,26.090097,26.088388,26.082361,26.075888,26.0633,26.052134,26.036339,26.02464,26.006124,25.992401,25.984692,25.984133,25.986479,25.974606,26.200674,25.797619,24.630178,22.577137,20.432972,18.867147,18.84894,18.97002,18.93498,18.921612,18.936539,18.95776,18.97519,19.006477,19.032797,19.05269,19.058151,19.066229,19.069452,19.068285,19.068102,19.074846,19.086088,19.095444,19.106665,19.116625,19.12151,19.11809,19.11505,19.114677,19.11744,19.121756,19.123835,19.12303
17.953606,17.95587,17.942133,18.023691,18.009853,20.561947,24.064745,25.933228,25.531374,25.588387,25.608482,25.647573,25.666573,25.69067,25.706692,25.716331,25.722528,25.727827,25.736797,25.746204,25.76072,25.772038,25.788578,25.800604,25.817726,25.829687,25.84349,25.851063,25.861895,25.869152,25.87603,25.878996,25.881456,25.881744,25.881823,25.880337,25.878075,25.874674,25.871742,25.868704,25.867264,25.864805,25.862661,25.858637,25.855082,25.851128,25.84912,25.847193,25.846819,25.847551,25.849802,25.854065,25.859049,25.863865,25.868656,25.873466,25.87915,25.884197,25.890676,25.895863,25.902674,25.907553,25.9142,25.918839,25.92469,25.928242,25.932117,25.934017,25.936998,25.939589,25.94418,25.948912,25.954035,25.959442,25.965736,25.974049,25.982325,25.994284,26.005367,26.020214,26.03135,26.045988,26.055912,26.070566,26.081503,26.092867,26.097792,26.101095,26.100567,26.101673,26.102787,26.10323,26.103487,26.104712,26.106516,26.10866,26.110218,26.11068,26.109774,26.108446,26.105896,26.104355,26.098572,26.09228,26.079885,26.068813,26.053022,26.041197,26.021927,26.007483,26.000626,26.001049,26.001514,25.987686,26.206383,25.816362,24.688375,22.694027,20.600683,19.068357,19.046938,19.163496,19.130838,19.12092,19.13834,19.16168,19.179457,19.206177,19.225727,19.238762,19.240694,19.24769,19.25372,19.257774,19.263138,19.272814,19.285145,19.294538,19.30563,19.31725,19.31875,19.306461,19.30165,19.30898,19.31597,19.318676,19.319859,19.31882
18.102762,18.10652,18.090065,18.175346,18.173113,20.67825,24.10622,25.938139,25.548445,25.607008,25.627352,25.665466,25.683283,25.707085,25.72323,25.73277,25.738777,25.743862,25.75253,25.761698,25.77586,25.786894,25.803019,25.814745,25.831442,25.843111,25.85653,25.863855,25.874334,25.88135,25.887981,25.890827,25.893194,25.893473,25.893562,25.892153,25.889992,25.886726,25.883904,25.880985,25.879635,25.877247,25.875116,25.871092,25.867529,25.863487,25.861359,25.859213,25.858624,25.859104,25.861164,25.865198,25.869995,25.87461,25.879236,25.883902,25.889467,25.89444,25.900839,25.905947,25.91269,25.917543,25.924204,25.928896,25.9347,25.93813,25.942139,25.944332,25.947723,25.950533,25.954672,25.958742,25.963774,25.969378,25.975683,25.98393,25.992115,26.003931,26.014896,26.029617,26.040665,26.055326,26.065502,26.079353,26.088764,26.100348,26.106987,26.111185,26.110544,26.111712,26.112839,26.11333,26.11363,26.11489,26.11674,26.118937,26.120613,26.12121,26.120525,26.119383,26.117128,26.115837,26.110407,26.104366,26.092237,26.081287,26.065567,26.053677,26.033844,26.018854,26.012709,26.013983,26.013092,25.997957,26.210407,25.83218,24.742851,22.794655,20.727554,19.209269,19.185144,19.298819,19.267647,19.260368,19.280043,19.30554,19.323912,19.343628,19.35356,19.361809,19.365318,19.37667,19.388437,19.396687,19.403868,19.413317,19.424507,19.43372,19.44484,19.456509,19.45831,19.446592,19.441378,19.447445,19.453583,19.456352,19.457245,19.455809
18.317028,18.323317,18.303175,18.392399,18.40444,20.842606,24.165956,25.946848,25.57444,25.635466,25.656342,25.69323,25.70941,25.732784,25.749039,25.758377,25.764032,25.768753,25.776886,25.78561,25.799183,25.809814,25.825333,25.836597,25.852633,25.86384,25.876688,25.883669,25.893621,25.900251,25.906525,25.909222,25.911505,25.911825,25.911959,25.910671,25.908672,25.905611,25.902945,25.900177,25.898916,25.896568,25.894426,25.890373,25.8868,25.882471,25.879944,25.877352,25.876482,25.876587,25.878366,25.88207,25.886606,25.890938,25.895317,25.899746,25.905104,25.909954,25.916206,25.921171,25.927776,25.932568,25.939241,25.944029,25.949846,25.953201,25.957294,25.959665,25.963308,25.966248,25.970068,25.973682,25.97861,25.984293,25.990595,25.998766,26.006807,26.018421,26.02922,26.043768,26.054693,26.069336,26.079706,26.093016,26.10136,26.113281,26.12138,26.126396,26.125713,26.126938,26.128036,26.128521,26.128807,26.130056,26.131914,26.134104,26.135864,26.13661,26.136211,26.135324,26.133442,26.132421,26.127394,26.121668,26.109869,26.099077,26.08343,26.07144,26.05089,26.035181,26.029749,26.031841,26.028944,26.011913,26.216272,25.852844,24.810137,22.924204,20.90267,19.411705,19.38274,19.491133,19.462494,19.458757,19.480867,19.508488,19.527166,19.53836,19.537294,19.543747,19.55288,19.567587,19.581512,19.59198,19.600143,19.609344,19.619715,19.628471,19.639755,19.652517,19.654379,19.641302,19.634579,19.639967,19.645653,19.64848,19.64928,19.647707
18.47171,18.480108,18.45742,18.54845,18.569075,20.959154,24.208937,25.954004,25.593952,25.6569,25.678288,25.714447,25.729523,25.752602,25.768888,25.778048,25.78341,25.787832,25.795523,25.80386,25.816963,25.82731,25.842384,25.853294,25.86882,25.879667,25.892092,25.89883,25.908382,25.914711,25.920721,25.923332,25.92559,25.925987,25.926176,25.92499,25.923128,25.920235,25.917696,25.91503,25.913813,25.91147,25.909304,25.905216,25.901644,25.897001,25.89405,25.89106,25.890001,25.88983,25.891413,25.89488,25.899233,25.903376,25.907576,25.911818,25.91701,25.921757,25.927889,25.932735,25.939222,25.943947,25.95064,25.955515,25.961386,25.964735,25.968794,25.971125,25.97473,25.97765,25.981474,25.985094,25.989996,25.995634,26.001926,26.010046,26.017977,26.029436,26.040125,26.054543,26.06537,26.07996,26.090347,26.103672,26.112007,26.12418,26.132624,26.137915,26.1373,26.138546,26.139584,26.140005,26.140226,26.141428,26.143248,26.145372,26.14714,26.147974,26.147766,26.147074,26.145437,26.144566,26.13978,26.134264,26.122683,26.111994,26.096384,26.08432,26.063313,26.04712,26.041975,26.044384,26.040104,26.021793,26.220793,25.86663,24.852087,23.008596,21.02475,19.557753,19.524443,19.628407,19.602324,19.601036,19.62396,19.652225,19.670816,19.676847,19.669676,19.678204,19.693691,19.709146,19.720814,19.730356,19.73798,19.746855,19.757006,19.76538,19.77669,19.79025,19.79195,19.777487,19.76952,19.774637,19.780197,19.783133,19.784119,19.782726
18.684847,18.695826,18.669117,18.7608,18.791054,21.114311,24.264015,25.960241,25.61702,25.68258,25.704739,25.74021,25.754156,25.777086,25.793589,25.802698,25.807844,25.812023,25.819275,25.827204,25.83978,25.849796,25.864323,25.874788,25.889671,25.900072,25.911983,25.918427,25.927483,25.933424,25.93912,25.941648,25.943895,25.944405,25.944687,25.943678,25.942057,25.93946,25.937134,25.934673,25.933575,25.931316,25.929173,25.925035,25.921385,25.916458,25.91318,25.90982,25.908535,25.908073,25.909449,25.912678,25.916845,25.920801,25.924835,25.928892,25.933931,25.938616,25.944689,25.949453,25.955881,25.96059,25.967382,25.972431,25.978441,25.981806,25.985924,25.988308,25.991987,25.994944,25.99872,26.002241,26.007092,26.0127,26.018974,26.027014,26.034803,26.046059,26.056583,26.070807,26.08148,26.095951,26.106312,26.119635,26.12797,26.140333,26.149046,26.15464,26.154202,26.155499,26.15645,26.156805,26.15697,26.158129,26.159948,26.162045,26.163927,26.164978,26.165169,26.164845,26.163689,26.163141,26.15881,26.153633,26.142395,26.131844,26.116274,26.104076,26.082407,26.0655,26.060308,26.063011,26.058384,26.039652,26.2311,25.886938,24.905098,23.117195,21.189932,19.759958,19.718634,19.818785,19.80364,19.806547,19.823761,19.848999,19.868273,19.870928,19.859411,19.867804,19.88591,19.901394,19.911978,19.92112,19.928488,19.936972,19.946754,19.956337,19.964357,19.96824,19.966911,19.960623,19.958427,19.962347,19.96716,19.970142,19.97126,19.970032
18.84745,18.860106,18.830927,18.92196,18.957186,21.22827,24.302183,25.961445,25.63119,25.6988,25.721588,25.756916,25.770432,25.793434,25.810158,25.81934,25.824436,25.828512,25.835533,25.843224,25.85549,25.865313,25.8795,25.889668,25.90414,25.914255,25.925844,25.93211,25.940832,25.946514,25.952019,25.95452,25.956793,25.957413,25.957806,25.956982,25.95561,25.953314,25.951206,25.94897,25.94801,25.945887,25.943817,25.93967,25.935925,25.930876,25.927511,25.924,25.92258,25.921967,25.923233,25.92633,25.930397,25.934248,25.938189,25.94213,25.947088,25.951756,25.95783,25.962572,25.969006,25.973728,25.980637,25.985842,25.99199,25.995388,25.999598,26.002066,26.005844,26.008854,26.01261,26.01606,26.020878,26.026468,26.032719,26.040693,26.048374,26.059462,26.06985,26.083889,26.094412,26.10872,26.118982,26.13233,26.140823,26.153059,26.161459,26.167242,26.16727,26.168722,26.169567,26.169884,26.170034,26.171194,26.17305,26.175177,26.177217,26.178503,26.179098,26.179117,26.17841,26.178177,26.174248,26.16934,26.15838,26.14794,26.132402,26.120096,26.097954,26.080517,26.074976,26.077797,26.074123,26.056152,26.241508,25.90332,24.943647,23.197115,21.315628,19.91581,19.86675,19.965265,19.963236,19.969933,19.978498,19.998682,20.018606,20.021421,20.009975,20.017105,20.033611,20.048204,20.058613,20.067566,20.074816,20.083006,20.092522,20.1039,20.107756,20.098866,20.09382,20.09881,20.104769,20.10738,20.111347,20.114311,20.115501,20.114397
19.04701,19.060867,19.032116,19.123966,19.163994,21.368206,24.346308,25.959196,25.645842,25.71606,25.739428,25.774994,25.788458,25.811499,25.828201,25.837328,25.842243,25.846094,25.852757,25.860128,25.872032,25.881662,25.89552,25.9054,25.919487,25.929338,25.940619,25.946705,25.955076,25.960472,25.965776,25.968271,25.970606,25.971413,25.972004,25.97151,25.970528,25.968693,25.966928,25.965052,25.964321,25.96244,25.960522,25.956417,25.952585,25.94745,25.944038,25.940401,25.938845,25.938051,25.939163,25.942059,25.945936,25.949564,25.953287,25.956997,25.961761,25.966337,25.972319,25.97696,25.983313,25.988,25.99497,26.0003,26.006548,26.009966,26.01427,26.016842,26.020754,26.023836,26.027588,26.030975,26.03577,26.041336,26.04754,26.0554,26.062918,26.07376,26.083937,26.09767,26.107935,26.12193,26.131992,26.145224,26.153807,26.165144,26.172276,26.178621,26.180376,26.18248,26.183065,26.183374,26.18356,26.184801,26.186806,26.189068,26.191372,26.192974,26.194054,26.194492,26.194315,26.194448,26.19095,26.186298,26.175638,26.165363,26.149923,26.137554,26.114952,26.097006,26.09127,26.094524,26.092455,26.07587,26.25249,25.924253,25.003105,23.313736,21.481373,20.110535,20.050865,20.146484,20.159416,20.171524,20.17177,20.187254,20.207914,20.210073,20.197636,20.203804,20.219765,20.233763,20.243872,20.252716,20.259922,20.26769,20.277172,20.290388,20.292643,20.27683,20.26889,20.278633,20.288074,20.290096,20.293636,20.296526,20.297768,20.296822
19.213959,19.22895,19.203846,19.297205,19.338991,21.483868,24.379192,25.952362,25.65422,25.726952,25.750843,25.787086,25.80098,25.824177,25.840794,25.849894,25.85469,25.858376,25.86479,25.871937,25.883625,25.893185,25.906898,25.91664,25.930552,25.940294,25.951448,25.95746,25.96564,25.970863,25.976074,25.97861,25.981043,25.982044,25.982862,25.982712,25.982126,25.98076,25.97934,25.977842,25.977362,25.975767,25.974024,25.970102,25.966356,25.961231,25.957748,25.954058,25.95247,25.951591,25.952599,25.955338,25.95904,25.962456,25.965944,25.969418,25.97396,25.978401,25.984243,25.988756,25.994984,25.999601,26.006557,26.01194,26.01822,26.021643,26.026014,26.028671,26.03269,26.03584,26.039604,26.042957,26.047747,26.053291,26.059446,26.06719,26.07457,26.08519,26.095163,26.108591,26.118595,26.132254,26.142084,26.155144,26.163765,26.173931,26.179472,26.186417,26.190207,26.193073,26.193375,26.193756,26.19404,26.195368,26.197489,26.199903,26.202457,26.20432,26.205774,26.206541,26.206749,26.207129,26.203897,26.199377,26.188913,26.178785,26.16346,26.151098,26.128258,26.110037,26.104193,26.107851,26.107437,26.092335,26.260818,25.942074,25.058905,23.420923,21.626347,20.276945,20.21017,20.302673,20.324135,20.339914,20.336391,20.347513,20.365446,20.367775,20.357882,20.364422,20.379364,20.392859,20.402784,20.41163,20.418919,20.42671,20.435848,20.448095,20.45008,20.43548,20.427902,20.436453,20.445007,20.447134,20.450659,20.453438,20.45476,20.454023
19.39434,19.412525,19.392124,19.487078,19.529911,21.609737,24.415092,25.944977,25.663301,25.739025,25.763824,25.800764,25.814959,25.838486,25.855274,25.864506,25.869322,25.872967,25.879229,25.8862,25.89772,25.907242,25.920864,25.9305,25.944263,25.953903,25.964977,25.970968,25.978989,25.984045,25.989174,25.991756,25.994303,25.995497,25.996517,25.996675,25.996456,25.995533,25.99444,25.993303,25.993063,25.991741,25.990149,25.986593,25.983253,25.978088,25.974176,25.970293,25.968765,25.96785,25.968775,25.97139,25.974936,25.978168,25.981436,25.984653,25.98893,25.9932,25.998848,26.003191,26.00924,26.013742,26.020657,26.026102,26.032425,26.035843,26.040272,26.043009,26.047134,26.050356,26.054129,26.05744,26.062231,26.067768,26.073893,26.081547,26.088818,26.099253,26.109062,26.122227,26.132004,26.145386,26.15504,26.167982,26.176668,26.185884,26.190111,26.197731,26.203415,26.206802,26.206617,26.20706,26.207504,26.20874,26.210764,26.21326,26.21604,26.218124,26.21991,26.220982,26.221512,26.222054,26.219004,26.214588,26.20429,26.19429,26.179073,26.16672,26.143679,26.125217,26.119232,26.123161,26.124073,26.110134,26.269926,25.96123,25.117609,23.5346,21.781729,20.458792,20.389711,20.477953,20.500223,20.517418,20.515549,20.519093,20.5253,20.529173,20.530378,20.540085,20.55237,20.565075,20.574741,20.58356,20.590971,20.599667,20.607208,20.61303,20.61242,20.60356,20.600552,20.607979,20.61545,20.617573,20.621016,20.62368,20.625135,20.62462
19.575161,19.596905,19.582966,19.679579,19.721804,21.73295,24.444883,25.930593,25.667156,25.746675,25.772572,25.81068,25.825563,25.849684,25.866796,25.876318,25.881304,25.885038,25.891298,25.898197,25.909689,25.91927,25.932941,25.942587,25.956367,25.966028,25.977177,25.98325,25.991259,25.99626,26.001432,26.004148,26.006886,26.008335,26.009628,26.010166,26.010368,26.009966,26.009262,26.00858,26.008656,26.00772,26.006357,26.003325,26.000526,25.995497,25.991247,25.987309,25.985937,25.9851,25.986023,25.98858,25.99201,25.99511,25.9982,26.001205,26.005255,26.009375,26.014858,26.019068,26.02497,26.029373,26.03623,26.04169,26.048004,26.051395,26.055822,26.058596,26.062756,26.065998,26.069748,26.073017,26.077787,26.08329,26.089357,26.0969,26.104055,26.114285,26.12388,26.136728,26.146248,26.159311,26.16875,26.181482,26.190105,26.198795,26.20238,26.210035,26.216303,26.220053,26.22002,26.220789,26.22146,26.222708,26.224634,26.227121,26.229979,26.232178,26.23415,26.235397,26.236086,26.236677,26.23367,26.229265,26.219057,26.209175,26.194084,26.181787,26.158693,26.140095,26.133888,26.13771,26.13897,26.125309,26.27721,25.977638,25.16769,23.636684,21.929451,20.639574,20.573725,20.657358,20.673204,20.688526,20.691334,20.689629,20.68474,20.690174,20.701836,20.714499,20.724228,20.736185,20.745668,20.75455,20.762213,20.772291,20.777882,20.775085,20.771301,20.77082,20.77438,20.780148,20.786072,20.788288,20.791697,20.794231,20.796158,20.79624
19.744278,19.767817,19.759861,19.85738,19.898191,21.843594,24.466887,25.911207,25.665817,25.749197,25.776033,25.815565,25.83147,25.856295,25.873735,25.883621,25.888845,25.892717,25.899044,25.90595,25.917494,25.927162,25.940937,25.95063,25.96452,25.974283,25.985575,25.991755,25.999836,26.004868,26.010187,26.013105,26.016104,26.017872,26.01954,26.02057,26.021286,26.021498,26.021273,26.021162,26.021648,26.021229,26.020199,26.017654,26.015213,26.01053,26.006414,26.002693,26.00147,26.000778,26.001745,26.004288,26.00763,26.01063,26.013592,26.016462,26.020393,26.024433,26.02986,26.034044,26.039919,26.044298,26.051136,26.05658,26.06285,26.066187,26.070568,26.073317,26.077427,26.080622,26.084305,26.08751,26.092207,26.097628,26.103584,26.110966,26.117962,26.127909,26.137209,26.149633,26.158829,26.17145,26.180578,26.192926,26.201319,26.209908,26.213554,26.220175,26.225197,26.229313,26.230635,26.23215,26.233097,26.23466,26.236689,26.239096,26.241856,26.244112,26.246202,26.247534,26.248316,26.248951,26.245966,26.241539,26.231407,26.221653,26.206715,26.194504,26.171417,26.152704,26.146242,26.149702,26.150406,26.136211,26.281725,25.989576,25.204384,23.718153,22.057762,20.804012,20.742779,20.822767,20.83231,20.844471,20.849596,20.848309,20.842068,20.84743,20.85989,20.872335,20.881332,20.892876,20.90231,20.911385,20.919382,20.930662,20.934855,20.925552,20.919176,20.924559,20.933115,20.938301,20.943588,20.94589,20.94926,20.95166,20.954416,20.955507
19.942842,19.96897,19.969479,20.069368,20.1091,21.974133,24.488464,25.883368,25.661982,25.751059,25.779032,25.82074,25.838203,25.863913,25.881586,25.891815,25.897253,25.901247,25.907652,25.91458,25.926231,25.93606,25.950054,25.959892,25.974028,25.984001,25.99558,26.001959,26.010235,26.015375,26.02094,26.024136,26.027456,26.029596,26.031706,26.033295,26.03458,26.035479,26.035799,26.03635,26.037323,26.037516,26.0369,26.03491,26.03284,26.028622,26.024778,26.021397,26.020369,26.01989,26.020947,26.023525,26.026802,26.029718,26.032574,26.035334,26.03916,26.043121,26.048487,26.052645,26.058481,26.062836,26.069614,26.074999,26.081177,26.084442,26.088741,26.091452,26.095493,26.098625,26.10226,26.10542,26.11006,26.115395,26.12123,26.128424,26.135256,26.144892,26.153843,26.16579,26.174633,26.186804,26.19563,26.207579,26.215696,26.224388,26.228422,26.234112,26.237762,26.242111,26.244663,26.246786,26.247936,26.249853,26.252058,26.254416,26.257023,26.259228,26.261278,26.262577,26.263296,26.263872,26.260778,26.256243,26.246122,26.236492,26.221722,26.209627,26.186646,26.16786,26.160921,26.163586,26.163046,26.147768,26.286873,26.002148,25.238798,23.801163,22.200624,20.994846,20.940203,21.015799,21.016953,21.024076,21.030884,21.032461,21.02883,21.034033,21.044102,21.055225,21.063948,21.075058,21.084415,21.093685,21.102057,21.114126,21.117714,21.105062,21.097334,21.10574,21.116928,21.12191,21.126966,21.12935,21.132692,21.134949,21.13882,21.141338
20.099232,20.129318,20.139568,20.242437,20.27976,22.078756,24.504889,25.860723,25.660072,25.754381,25.783209,25.826979,25.845905,25.872223,25.889809,25.900103,25.905527,25.90949,25.91584,25.922703,25.934387,25.94433,25.958511,25.968485,25.982841,25.992987,26.004822,26.011381,26.019825,26.025043,26.030792,26.034182,26.037722,26.040096,26.04249,26.044441,26.0461,26.047453,26.048126,26.049114,26.050404,26.051004,26.050661,26.04908,26.047312,26.043396,26.039675,26.036512,26.03565,26.035355,26.036499,26.039124,26.042377,26.045246,26.048018,26.050692,26.054409,26.058285,26.06354,26.067608,26.073332,26.077612,26.084276,26.08958,26.09565,26.098843,26.10309,26.105785,26.109797,26.112906,26.116522,26.119677,26.124292,26.129578,26.13533,26.142397,26.149128,26.158566,26.167286,26.17894,26.187578,26.199526,26.20823,26.220022,26.228027,26.236765,26.24097,26.246817,26.250534,26.254921,26.257465,26.259579,26.260773,26.26287,26.265266,26.267712,26.270302,26.272448,26.274385,26.275618,26.276203,26.276651,26.273367,26.268677,26.258497,26.24894,26.23427,26.22226,26.199394,26.180597,26.173176,26.175081,26.173557,26.15748,26.291754,26.012564,25.264818,23.864912,22.313364,21.146776,21.096725,21.168467,21.163416,21.166462,21.174007,21.177134,21.175144,21.180809,21.19009,21.20053,21.208748,21.219387,21.22856,21.23786,21.246437,21.258482,21.262436,21.250896,21.243662,21.251247,21.26165,21.266588,21.271687,21.274132,21.277334,21.279308,21.284918,21.289904
20.307812,20.340458,20.35554,20.464016,20.509485,22.224709,24.528824,25.83059,25.657814,25.759348,25.78962,25.835676,25.855957,25.883163,25.901009,25.911613,25.917225,25.921322,25.927786,25.9347,25.946589,25.95679,25.971354,25.981588,25.996323,26.00673,26.018969,26.025827,26.03458,26.039976,26.046015,26.049675,26.053534,26.056227,26.058962,26.061333,26.063417,26.065302,26.06641,26.067945,26.06965,26.07078,26.070803,26.069717,26.068293,26.064684,26.061047,26.058073,26.05736,26.057217,26.058432,26.061083,26.064297,26.0671,26.069777,26.072353,26.075958,26.079744,26.084913,26.088932,26.0946,26.098856,26.10547,26.110733,26.11674,26.11989,26.12411,26.126818,26.13085,26.13399,26.137678,26.140911,26.145613,26.150936,26.156675,26.16366,26.170307,26.179539,26.18799,26.199287,26.207678,26.21935,26.227901,26.239483,26.247328,26.256065,26.260435,26.266531,26.270437,26.274767,26.277086,26.27905,26.280153,26.282154,26.284456,26.286837,26.289272,26.291174,26.292809,26.293865,26.294214,26.294474,26.290995,26.286194,26.276009,26.266542,26.252,26.24009,26.217379,26.198551,26.190351,26.191122,26.188416,26.171482,26.30011,26.027363,25.296206,23.943222,22.45778,21.344612,21.300404,21.36713,21.354471,21.352516,21.36095,21.366308,21.366804,21.373354,21.381735,21.391506,21.399246,21.40942,21.418423,21.427755,21.436697,21.44917,21.453907,21.443665,21.436693,21.44289,21.452,21.456833,21.461908,21.464333,21.467882,21.4704,21.474241,21.47662
20.461128,20.495634,20.507242,20.620352,20.680305,22.337683,24.549532,25.809795,25.656748,25.763416,25.795061,25.842283,25.862959,25.890875,25.909294,25.920336,25.92628,25.930618,25.93731,25.944357,25.9565,25.966953,25.981865,25.99233,26.007381,26.017998,26.030575,26.037693,26.046728,26.052296,26.058586,26.062464,26.066587,26.069536,26.072512,26.075167,26.07754,26.079803,26.081224,26.083172,26.085192,26.08673,26.087029,26.086288,26.085085,26.081621,26.077967,26.075058,26.074434,26.07435,26.075575,26.078213,26.081371,26.084116,26.08672,26.089228,26.092766,26.096502,26.101654,26.105694,26.111408,26.1157,26.12236,26.12766,26.13369,26.136839,26.141071,26.143797,26.14788,26.151087,26.154882,26.15823,26.163076,26.168509,26.174316,26.1813,26.187939,26.19705,26.205336,26.216393,26.224613,26.236078,26.244493,26.255886,26.263588,26.27226,26.276686,26.282766,26.28661,26.290855,26.29308,26.294952,26.295908,26.297598,26.299545,26.301685,26.303871,26.305506,26.30687,26.307762,26.307964,26.308134,26.30463,26.299883,26.289795,26.280418,26.265999,26.25416,26.231544,26.212652,26.203764,26.203615,26.200111,26.182652,26.30752,26.03886,25.31722,23.996853,22.560955,21.488335,21.448631,21.51181,21.493622,21.488169,21.497458,21.504543,21.506792,21.514061,21.521912,21.531353,21.538855,21.54875,21.55764,21.56675,21.57633,21.591324,21.597555,21.585657,21.576744,21.58277,21.591827,21.59647,21.601366,21.603666,21.608118,21.612122,21.610865,21.605623
20.688988,20.70925,20.716433,20.838707,20.922197,22.496586,24.573595,25.77483,25.652504,25.76729,25.800451,25.849663,25.87132,25.900297,25.919434,25.931122,25.937624,25.942406,25.94957,25.956944,25.9696,25.980528,25.996058,26.00693,26.022472,26.033365,26.046389,26.053852,26.063292,26.069126,26.075768,26.079937,26.084433,26.087734,26.091042,26.094069,26.096825,26.099579,26.101418,26.10393,26.10639,26.1085,26.109186,26.108927,26.108015,26.104887,26.1014,26.098516,26.097773,26.097683,26.098946,26.101564,26.104662,26.107347,26.109894,26.112349,26.115868,26.119595,26.1248,26.128927,26.134779,26.13917,26.14595,26.151312,26.157412,26.16059,26.164886,26.167671,26.171862,26.17518,26.179153,26.182674,26.187723,26.19328,26.199131,26.206047,26.212616,26.221483,26.229448,26.240067,26.247978,26.259077,26.267275,26.278364,26.285847,26.294476,26.299047,26.30521,26.309053,26.313288,26.315466,26.31729,26.31809,26.319353,26.320827,26.322756,26.324646,26.325811,26.326601,26.327133,26.326906,26.32676,26.322966,26.31811,26.307966,26.298628,26.284266,26.272486,26.25002,26.231144,26.221539,26.220434,26.216269,26.19856,26.318369,26.05632,25.350739,24.076895,22.707632,21.688253,21.652868,21.711067,21.687246,21.678381,21.688751,21.698236,21.702963,21.711432,21.718794,21.728046,21.735456,21.745401,21.754663,21.76599,21.775095,21.781858,21.782942,21.777073,21.774542,21.780249,21.788189,21.792585,21.797253,21.79949,21.80403,21.808287,21.802824,21.792099
