37.434917,37.438046,37.440277,37.4431,37.444958,37.446556,37.447346,37.448513,37.449062,37.44866,37.448185,37.44841,37.44895,37.449524,37.449738,37.449455,37.44877,37.44809,37.447292,37.446842,37.447247,37.448277,37.4494,37.45028,37.451836,37.45325,37.454357,37.45516,37.456192,37.4574,37.458637,37.460003,37.460976,37.46206,37.462723,37.46411,37.46556,37.46715,37.46795,37.468704,37.46893,37.469044,37.468784,37.467632,37.46608,37.46426,37.46263,37.46126,37.459408,37.45722,37.45266,37.446945,37.439213,37.433365,37.426483,37.422287,37.41588,37.410896,37.403633,37.398457,37.39183,37.387634,37.38206,37.378292,37.37403,37.371315,37.36859,37.36652,37.364124,37.361607,37.35924,37.35674,37.35485,37.353043,37.35203,37.35112,37.35072,37.350304,37.350082,37.34995,37.35005,37.35132,37.353115,37.355457,37.35774,37.361313,37.364895,37.36847,37.371754,37.374756,37.37829,37.381763,37.38583,37.38856,37.39241,37.395382,37.40021,37.404114,37.40929,37.412643,37.416996,37.419792,37.423794,37.42673,37.42992,37.43221,37.435192,37.43814,37.441586,37.44488,37.4473,37.4496,37.451546,37.45306,37.453514,37.453796,37.453934,37.453953,37.45388,37.453342,37.45265,37.451477,37.45032,37.448105,37.445976,37.44382,37.442406,37.44131,37.44054,37.439575,37.438618,37.437943,37.437157,37.43669,37.435314,37.43374,37.43138,37.42973,37.427113,37.425102,37.422314,37.420334,37.417725,37.4158,37.41331,37.411182,37.408672,37.405785,37.402016,37.39745,37.393627,37.388252,37.38328,37.37579,37.36944,37.361168,37.35574,37.34804,37.34267,37.334618,37.3287,37.320625,37.314793,37.306725,37.30019,37.292004,37.284912,37.277115,37.270096,37.26404,37.257885,37.252773,37.2458,37.23952,37.23152,37.226276,37.218388,37.21239,37.203903,37.198048,37.18933,37.18282,37.173973,37.167076,37.157192,37.148483,37.138714,37.129997,37.121315,37.111977,37.102917,37.091675,37.082283,37.07012,37.061054,37.04866,37.039833,37.02733,37.018604,37.00618,36.99751,36.985683,36.977436,36.967274,36.960056,36.95091,36.943604,36.936733,36.930386,36.923195,36.9154,36.909107,36.9025,36.89806,36.892715,36.889046,36.883686,36.879784,36.873535,36.86873,36.861385,36.85573,36.84814,36.842365,36.83476,36.828194,36.82004,36.81223,36.80409,36.796036,36.789356,36.781662,36.77566,36.766037,36.75722,36.744846,36.736034,36.72414,36.71628,36.704784,36.696583,36.685677,36.678146,36.66829,36.660854,36.65153,36.64381,36.63563,36.628662,36.622753,36.61694,36.611958,36.60582,36.60087,36.59447,36.59011,36.58328,36.57789,36.570446,36.565437,36.557674,36.55171,36.543705,36.53777,36.53049,36.5247,36.51767,36.510963,36.503696,36.49605,36.489197,36.481483,36.475452,36.467896,36.462185,36.454773,36.449764,36.44276,36.43783,36.432213,36.429264,36.424915,36.422035,36.419857,36.41944,36.41883,36.41832,36.41681,36.415607,36.415913,36.416298,36.415714,36.414818,36.41412,36.413864,36.4142,36.414677,36.414963,36.41535,36.41562,36.415234,36.41448,36.414036,36.41394,36.413628,36.41312,36.412125,36.41079
37.55323,37.556427,37.558784,37.5618,37.563847,37.565693,37.566727,37.56819,37.56902,37.568867,37.568623,37.569023,37.569748,37.570435,37.570824,37.570713,37.570206,37.56961,37.568913,37.568504,37.568913,37.569893,37.570885,37.571625,37.57305,37.574383,37.575428,37.576218,37.57726,37.578518,37.5798,37.581203,37.58219,37.583286,37.583954,37.585342,37.586792,37.588398,37.589207,37.590015,37.59031,37.5905,37.59028,37.589203,37.58773,37.58605,37.584576,37.58338,37.581707,37.579693,37.57533,37.569763,37.562206,37.556538,37.549698,37.545208,37.53935,37.535534,37.52948,37.52486,37.518467,37.51402,37.508198,37.504227,37.4998,37.49706,37.494392,37.4925,37.4903,37.4881,37.48609,37.48405,37.482567,37.481045,37.47999,37.479202,37.479076,37.47904,37.479084,37.47917,37.47929,37.480404,37.481922,37.48391,37.485855,37.48898,37.492153,37.495308,37.498276,37.501045,37.504395,37.507683,37.511646,37.514378,37.518337,37.52142,37.52648,37.53058,37.53612,37.539787,37.544575,37.547684,37.552166,37.555492,37.559093,37.56176,37.565464,37.56907,37.572826,37.576244,37.578804,37.58127,37.583393,37.585026,37.585476,37.585762,37.585968,37.585796,37.585377,37.584507,37.58367,37.582222,37.580784,37.577957,37.575203,37.57237,37.57049,37.569057,37.568104,37.566936,37.56582,37.565063,37.564224,37.563705,37.56229,37.560673,37.55837,37.5568,37.554367,37.552532,37.55002,37.54827,37.546013,37.544388,37.542328,37.54054,37.538273,37.53555,37.532017,37.527683,37.524025,37.51884,37.51406,37.50675,37.50047,37.49227,37.4869,37.47929,37.47401,37.46582,37.459625,37.451157,37.44496,37.436295,37.429226,37.420517,37.413033,37.40473,37.397305,37.39095,37.384605,37.37937,37.37236,37.366074,37.35821,37.35319,37.345562,37.3397,37.33139,37.325657,37.31706,37.3106,37.301865,37.295067,37.285313,37.27675,37.26722,37.258728,37.250202,37.240982,37.23205,37.220947,37.211685,37.199615,37.19054,37.178185,37.169434,37.15698,37.14824,37.135796,37.127106,37.1153,37.10709,37.096954,37.08974,37.080566,37.0732,37.066223,37.05975,37.05248,37.044575,37.038147,37.031345,37.026722,37.02114,37.017315,37.011772,37.00777,37.00148,36.996708,36.98949,36.98397,36.97658,36.970974,36.963512,36.957035,36.948982,36.941334,36.933464,36.925774,36.919422,36.912098,36.906372,36.89707,36.88849,36.876377,36.867733,36.856007,36.84821,36.836765,36.82856,36.81768,36.810165,36.80027,36.792774,36.78344,36.775734,36.767582,36.76065,36.754772,36.748993,36.744015,36.737953,36.73314,36.726887,36.72258,36.715782,36.71038,36.70302,36.69813,36.69056,36.68476,36.677048,36.671387,36.664463,36.659016,36.652462,36.64616,36.639187,36.631763,36.62515,36.617653,36.611797,36.604256,36.59845,36.590687,36.58528,36.577717,36.57242,36.56627,36.56296,36.55779,36.55414,36.551247,36.550407,36.54913,36.547993,36.545784,36.544083,36.544147,36.54449,36.54386,36.543083,36.542603,36.54264,36.543148,36.544,36.544647,36.545555,36.546177,36.54633,36.545963,36.546177,36.54667,36.5471,36.547264,36.5472,36.546803
37.682484,37.685703,37.68813,37.691227,37.69336,37.695347,37.69654,37.69815,37.699158,37.69925,37.699303,37.69992,37.700943,37.70189,37.70264,37.702843,37.702614,37.702106,37.701485,37.701103,37.70145,37.702312,37.703106,37.703674,37.704945,37.706207,37.707214,37.70802,37.70908,37.710342,37.71162,37.712982,37.713905,37.714893,37.715458,37.71675,37.718163,37.719734,37.720516,37.72139,37.7218,37.722115,37.721973,37.721016,37.71965,37.718124,37.716827,37.71586,37.71446,37.712734,37.708717,37.70344,37.6963,37.69105,37.684597,37.680206,37.67459,37.670998,37.66563,37.66173,37.65627,37.65236,37.646336,37.6416,37.63663,37.633663,37.63094,37.629234,37.627228,37.625435,37.623962,37.62264,37.621696,37.62087,37.62031,37.62031,37.620853,37.621452,37.621727,37.622036,37.622208,37.623077,37.624107,37.62514,37.62606,37.628002,37.630264,37.63266,37.635162,37.63759,37.640663,37.643612,37.647377,37.650116,37.654232,37.657463,37.662895,37.667336,37.673447,37.677567,37.683,37.686573,37.69167,37.695454,37.69974,37.703087,37.70783,37.71229,37.71652,37.720104,37.72282,37.72535,37.727528,37.72912,37.72945,37.729584,37.7297,37.729347,37.72877,37.72759,37.726467,37.72465,37.722942,37.71971,37.716537,37.713,37.710327,37.707863,37.70612,37.704647,37.703537,37.702805,37.70202,37.70151,37.700134,37.698563,37.69635,37.694878,37.692654,37.69103,37.688843,37.687363,37.685524,37.684277,37.682774,37.68146,37.679646,37.677273,37.67415,37.67024,37.66694,37.662155,37.657787,37.650757,37.644497,37.636227,37.630737,37.623283,37.61839,37.61019,37.603622,37.59434,37.587284,37.577385,37.569344,37.559864,37.55192,37.542824,37.53469,37.527897,37.52127,37.515812,37.508667,37.502304,37.494583,37.48975,37.482796,37.47769,37.47037,37.465256,37.457222,37.45093,37.442425,37.435707,37.425873,37.417152,37.407684,37.399345,37.390892,37.38174,37.372932,37.361958,37.352787,37.34076,37.33166,37.319324,37.31066,37.29818,37.28932,37.276665,37.267788,37.25581,37.24752,37.237225,37.229862,37.22052,37.213024,37.2059,37.19931,37.191994,37.18404,37.17757,37.170593,37.16572,37.159836,37.155834,37.150074,37.14592,37.139534,37.134777,37.127632,37.122227,37.115116,37.109795,37.102608,37.09634,37.088562,37.081245,37.07388,37.066696,37.060673,37.05364,37.048145,37.03914,37.030807,37.01897,37.01047,36.998917,36.991234,36.98,36.971985,36.961296,36.953903,36.94415,36.93675,36.927525,36.919884,36.91177,36.90484,36.89898,36.893177,36.888103,36.882046,36.877384,36.871296,36.867043,36.860287,36.8549,36.847668,36.842937,36.835567,36.82991,36.822495,36.817146,36.810642,36.805614,36.799713,36.79402,36.787487,36.780365,36.774,36.766678,36.76092,36.75345,36.74775,36.739727,36.733833,36.72556,36.719776,36.71288,36.70899,36.70239,36.697346,36.69331,36.69194,36.689793,36.68789,36.684826,36.682507,36.682217,36.682396,36.68161,36.680824,36.680424,36.68076,36.681572,36.682995,36.684124,36.68579,36.687004,36.68797,36.68819,36.689236,36.690403,36.691814,36.6929,36.694004,36.69471
37.812737,37.815907,37.818302,37.821365,37.82348,37.82551,37.826763,37.828403,37.829483,37.829742,37.830032,37.830826,37.832127,37.833317,37.834465,37.835003,37.835117,37.834763,37.83432,37.83404,37.83445,37.835285,37.836014,37.836502,37.8377,37.838943,37.839962,37.840794,37.84185,37.84309,37.84433,37.845608,37.846443,37.847317,37.84777,37.848965,37.850338,37.851856,37.8526,37.853516,37.854027,37.85444,37.85438,37.85356,37.852345,37.851006,37.849903,37.849197,37.848106,37.84671,37.84307,37.838097,37.831394,37.826603,37.820633,37.8165,37.811005,37.80726,37.80225,37.798985,37.79458,37.79154,37.78597,37.781143,37.77633,37.773537,37.770916,37.769318,37.767487,37.766033,37.764996,37.76423,37.763676,37.76342,37.76336,37.764084,37.76519,37.76634,37.7668,37.767365,37.767666,37.76844,37.769154,37.769447,37.769535,37.77054,37.772106,37.773952,37.776157,37.778378,37.781303,37.784058,37.787678,37.790394,37.79451,37.797745,37.80323,37.807743,37.813972,37.81819,37.823833,37.827618,37.832962,37.83696,37.84165,37.845417,37.850685,37.855515,37.85984,37.86334,37.866013,37.868477,37.870632,37.87218,37.872456,37.87256,37.872696,37.872402,37.8719,37.870655,37.8694,37.867474,37.865707,37.862465,37.85925,37.85542,37.85223,37.848907,37.84635,37.844437,37.843113,37.84226,37.841415,37.840885,37.839527,37.837994,37.835854,37.834427,37.832325,37.830822,37.828846,37.82755,37.82598,37.824986,37.823864,37.822895,37.821392,37.819298,37.816494,37.81297,37.809998,37.80571,37.80189,37.795376,37.789318,37.78129,37.775955,37.768936,37.764526,37.75658,37.74989,37.74015,37.732483,37.721695,37.712894,37.70276,37.694332,37.684475,37.675625,37.66833,37.661297,37.65547,37.648,37.641422,37.633648,37.62885,37.622375,37.617916,37.611423,37.606857,37.59928,37.59308,37.58469,37.57794,37.567867,37.558865,37.549297,37.541016,37.532616,37.52362,37.515022,37.504307,37.49533,37.483425,37.474327,37.461956,37.45327,37.44069,37.43172,37.418922,37.409946,37.397873,37.38955,37.379116,37.371597,37.362114,37.354507,37.347233,37.340523,37.333153,37.325153,37.318665,37.311535,37.306416,37.3002,37.29599,37.289978,37.285656,37.279114,37.27431,37.26715,37.26179,37.25483,37.249683,37.242638,37.236477,37.228893,37.22184,37.214832,37.208023,37.202248,37.19544,37.19011,37.181305,37.173134,37.161507,37.153145,37.14179,37.134224,37.123222,37.11541,37.10496,37.097702,37.088158,37.0809,37.071823,37.064266,37.0562,37.049294,37.043457,37.037655,37.03251,37.026463,37.02195,37.01603,37.01182,37.005135,36.99979,36.992687,36.98811,36.98094,36.97543,36.968315,36.96326,36.957123,36.952457,36.947166,36.942066,36.935966,36.92928,36.923424,36.916645,36.91125,36.90407,36.898533,36.890366,36.884098,36.875393,36.869377,36.862045,36.857758,36.85008,36.84392,36.83893,36.837048,36.834095,36.831474,36.827625,36.824646,36.82381,36.823547,36.822433,36.821404,36.82086,36.821182,36.822063,36.82373,36.82512,36.8272,36.82874,36.830177,36.830734,36.83223,36.833775,36.83581,36.837547,36.83945,36.84094
37.933826,37.936844,37.939137,37.942062,37.944122,37.946136,37.947437,37.949104,37.950245,37.950596,37.95102,37.95194,37.95341,37.954754,37.95616,37.956947,37.9574,37.95728,37.95715,37.957073,37.95771,37.958675,37.959526,37.960056,37.96129,37.962513,37.96352,37.964325,37.96534,37.96649,37.967644,37.96883,37.96961,37.97042,37.970833,37.972,37.973373,37.974903,37.97566,37.976616,37.977184,37.97769,37.97773,37.97711,37.97611,37.97504,37.974205,37.97381,37.973026,37.971924,37.968575,37.96379,37.957355,37.952812,37.947155,37.943237,37.938015,37.93445,37.92971,37.926655,37.922672,37.920063,37.915783,37.912354,37.909065,37.907127,37.904747,37.902847,37.900948,37.899445,37.89836,37.8976,37.89709,37.896935,37.896984,37.8979,37.899178,37.900585,37.901245,37.902073,37.902542,37.903477,37.90424,37.9046,37.9047,37.90572,37.907265,37.909042,37.911186,37.913395,37.91636,37.919212,37.92286,37.925507,37.929405,37.93245,37.937527,37.94166,37.947323,37.951107,37.95635,37.95999,37.96522,37.969223,37.97393,37.97767,37.982693,37.98717,37.99117,37.994385,37.996853,37.999214,38.00135,38.002945,38.00326,38.0035,38.003796,38.00369,38.00328,38.002186,38.001022,37.999252,37.997627,37.994606,37.991585,37.988014,37.98495,37.981644,37.97876,37.97614,37.97399,37.972603,37.97143,37.97081,37.969498,37.968052,37.966034,37.96469,37.9627,37.96127,37.959385,37.958164,37.95669,37.955765,37.954742,37.953846,37.952408,37.95034,37.947556,37.944088,37.941174,37.93724,37.93398,37.92821,37.922596,37.915306,37.910645,37.904274,37.90008,37.892464,37.885994,37.87651,37.86897,37.85822,37.84926,37.838676,37.82966,37.81918,37.80976,37.802006,37.794525,37.78831,37.780437,37.773586,37.765625,37.760826,37.75435,37.74987,37.743427,37.738934,37.731346,37.72506,37.71657,37.709743,37.699497,37.69033,37.680584,37.672268,37.66399,37.655296,37.647015,37.636684,37.628033,37.61631,37.607193,37.5946,37.585632,37.572807,37.563774,37.551056,37.542286,37.530453,37.522285,37.511986,37.504494,37.49501,37.48732,37.47991,37.47303,37.4655,37.45733,37.450703,37.443356,37.438038,37.43161,37.427296,37.42115,37.41673,37.410084,37.405228,37.39806,37.392742,37.385826,37.380703,37.373642,37.367443,37.359894,37.35291,37.345947,37.33923,37.333576,37.32693,37.321712,37.31305,37.30496,37.29348,37.28525,37.274036,37.26654,37.255623,37.247868,37.237507,37.23032,37.220844,37.213634,37.20463,37.19714,37.189144,37.1823,37.17654,37.17083,37.16575,37.159824,37.15545,37.149677,37.14553,37.138927,37.133663,37.126686,37.122196,37.115234,37.109924,37.103077,37.098232,37.092327,37.087852,37.08288,37.078083,37.07208,37.065773,37.060776,37.055054,37.0504,37.04359,37.037918,37.02946,37.02297,37.014175,37.00828,37.00101,36.996696,36.9888,36.982357,36.976982,36.97476,36.971294,36.968163,36.963783,36.96027,36.95883,36.95802,36.956577,36.955254,36.954525,36.954597,36.95527,36.956757,36.95811,36.96011,36.96158,36.962936,36.963467,36.964916,36.966454,36.96858,36.97049,36.972637,36.97441
38.07355,38.076504,38.078716,38.081573,38.083588,38.085567,38.086864,38.08851,38.08965,38.09,38.090466,38.091427,38.092995,38.094425,38.096024,38.097,38.097767,38.0979,38.098137,38.098312,38.09929,38.100468,38.101593,38.102287,38.103672,38.104984,38.106087,38.106945,38.107975,38.109116,38.11024,38.111404,38.11218,38.112972,38.113384,38.11455,38.115944,38.117477,38.11823,38.119198,38.119778,38.12032,38.12042,38.119934,38.11908,38.118217,38.117588,38.117424,38.116875,38.116005,38.112896,38.108295,38.102097,38.09776,38.092438,38.088818,38.084,38.080704,38.076298,38.073433,38.069798,38.067554,38.064537,38.06255,38.060753,38.059746,38.058006,38.056362,38.054848,38.05365,38.052853,38.05219,38.051563,38.05121,38.05112,38.05191,38.053123,38.05462,38.055477,38.056587,38.05728,38.05858,38.059654,38.060543,38.06114,38.0627,38.064667,38.06684,38.06928,38.07175,38.07496,38.07806,38.081776,38.084316,38.08787,38.0906,38.095016,38.098564,38.103294,38.106373,38.110703,38.113758,38.11825,38.121758,38.125797,38.128918,38.133,38.13658,38.13983,38.142517,38.144566,38.14672,38.148834,38.150562,38.151005,38.151596,38.152252,38.152634,38.152527,38.151886,38.15104,38.149723,38.148445,38.145924,38.143326,38.140293,38.137627,38.134747,38.131954,38.12901,38.126354,38.124676,38.123238,38.12245,38.120937,38.119335,38.117126,38.11567,38.113495,38.11192,38.10995,38.108753,38.107258,38.106293,38.105213,38.10425,38.102726,38.100655,38.097996,38.094826,38.092205,38.088783,38.086014,38.081013,38.076004,38.069675,38.065823,38.060265,38.05639,38.04943,38.043545,38.034855,38.027885,38.017845,38.00928,37.99885,37.989674,37.97909,37.96939,37.96123,37.953106,37.946278,37.937614,37.930157,37.921432,37.916115,37.909004,37.904137,37.897205,37.892433,37.884453,37.87792,37.86911,37.862087,37.85162,37.842335,37.83249,37.824203,37.816097,37.80777,37.799908,37.79012,37.78192,37.770634,37.761723,37.74922,37.740192,37.72738,37.71842,37.70584,37.69719,37.68543,37.67723,37.66685,37.659267,37.649784,37.642097,37.63455,37.62752,37.61995,37.611805,37.60525,37.597874,37.59243,37.58562,37.580853,37.57425,37.569656,37.562763,37.55775,37.550407,37.545006,37.537884,37.532547,37.52519,37.51875,37.511047,37.503986,37.496834,37.490017,37.484444,37.47799,37.47291,37.464424,37.456463,37.445232,37.437252,37.426323,37.41897,37.408222,37.40056,37.390366,37.38332,37.374004,37.366898,37.358036,37.350674,37.34282,37.336086,37.330414,37.324787,37.319798,37.314,37.30974,37.30408,37.3,37.293518,37.28836,37.281525,37.27713,37.270393,37.265327,37.258774,37.25414,37.248463,37.244186,37.239502,37.23509,37.22952,37.22391,37.21981,37.215153,37.21134,37.205173,37.199677,37.191257,37.18468,37.176025,37.17043,37.16346,37.159286,37.151653,37.145382,37.139854,37.137203,37.133236,37.129597,37.124718,37.12058,37.118294,37.116585,37.114597,37.112705,37.11154,37.110992,37.111122,37.112,37.113033,37.114532,37.115627,37.116535,37.116817,37.117916,37.119232,37.121098,37.122883,37.12493,37.126728
38.18185,38.184944,38.18723,38.190174,38.192234,38.19423,38.19549,38.197105,38.19821,38.19851,38.19892,38.199852,38.201424,38.202873,38.20455,38.2056,38.206524,38.2068,38.207233,38.20755,38.20875,38.210094,38.21144,38.21229,38.21388,38.215343,38.21663,38.217632,38.21879,38.22004,38.221268,38.222523,38.223362,38.224216,38.22466,38.225853,38.227253,38.228783,38.229507,38.230457,38.23103,38.23155,38.231617,38.231106,38.23027,38.229435,38.228848,38.22871,38.22822,38.22744,38.22448,38.220013,38.213993,38.209793,38.20473,38.201374,38.196888,38.193798,38.189743,38.18718,38.183945,38.181976,38.17925,38.177433,38.17581,38.175106,38.17427,38.173767,38.173256,38.17299,38.17311,38.172924,38.172123,38.171364,38.171036,38.171574,38.172646,38.17411,38.175064,38.176327,38.177162,38.17873,38.18009,38.18141,38.182415,38.18447,38.186882,38.1896,38.192535,38.195415,38.198925,38.202248,38.206024,38.2085,38.211838,38.214355,38.218338,38.2215,38.225613,38.2282,38.23168,38.234016,38.237534,38.240273,38.243317,38.245605,38.24872,38.251522,38.254093,38.256287,38.25794,38.259884,38.261974,38.26384,38.264416,38.26537,38.266407,38.26734,38.26763,38.267498,38.26697,38.2661,38.265133,38.263058,38.260784,38.258038,38.25557,38.252983,38.25051,38.247906,38.245564,38.244167,38.24275,38.241756,38.239742,38.23769,38.234924,38.23314,38.2305,38.228596,38.226433,38.225273,38.22377,38.22278,38.221634,38.220604,38.218914,38.216877,38.214615,38.21212,38.21014,38.207317,38.204773,38.20017,38.19565,38.189972,38.186554,38.181644,38.178246,38.172085,38.16681,38.158897,38.15244,38.14315,38.13517,38.125374,38.116604,38.10644,38.096806,38.088383,38.07959,38.0721,38.062477,38.054237,38.04441,38.038174,38.03016,38.024933,38.017487,38.012352,38.003944,37.99716,37.988045,37.98084,37.97018,37.96086,37.951084,37.942997,37.93504,37.926975,37.919434,37.910107,37.902306,37.891552,37.883057,37.87109,37.862434,37.849995,37.841217,37.82863,37.819763,37.80759,37.798992,37.78811,37.780224,37.77066,37.763077,37.755386,37.74828,37.74085,37.733025,37.726845,37.719677,37.71424,37.706898,37.70131,37.693928,37.689102,37.681885,37.676647,37.669025,37.663452,37.65598,37.650322,37.642544,37.63581,37.62789,37.620705,37.61332,37.606396,37.60093,37.594715,37.58981,37.581593,37.57385,37.56296,37.555275,37.5447,37.53757,37.52707,37.519524,37.509544,37.502674,37.493572,37.486626,37.47793,37.470684,37.46298,37.456356,37.45073,37.445126,37.44017,37.43443,37.43021,37.42462,37.420593,37.414223,37.409176,37.40249,37.39819,37.39166,37.38679,37.380505,37.37608,37.370647,37.366608,37.362267,37.358395,37.35376,37.349056,37.345364,37.3411,37.33773,37.332188,37.327282,37.31919,37.312466,37.30374,37.298218,37.291325,37.287193,37.279766,37.27368,37.267944,37.26482,37.26035,37.256233,37.25089,37.24619,37.243126,37.240562,37.23801,37.23552,37.233913,37.23275,37.232384,37.232677,37.233387,37.23442,37.23518,37.235718,37.2358,37.236683,37.23786,37.239506,37.241127,37.2431,37.24494
38.32515,38.32837,38.33067,38.33366,38.335724,38.33768,38.338863,38.340366,38.341362,38.341606,38.342,38.3429,38.3445,38.346,38.347828,38.34903,38.350178,38.350594,38.35127,38.351772,38.353245,38.35478,38.35637,38.357407,38.359245,38.360916,38.362415,38.36358,38.36487,38.366207,38.36751,38.3688,38.369644,38.370472,38.370884,38.37202,38.373394,38.374847,38.375504,38.376373,38.376904,38.377365,38.377373,38.376774,38.375862,38.374977,38.374382,38.374207,38.373726,38.373,38.370186,38.365902,38.360176,38.35621,38.35155,38.348553,38.344547,38.341766,38.338192,38.335976,38.33319,38.331493,38.328957,38.327156,38.325546,38.324997,38.32482,38.32518,38.325413,38.325813,38.326508,38.326786,38.326267,38.325623,38.32521,38.325603,38.326576,38.32812,38.32929,38.3309,38.332024,38.33407,38.335854,38.337845,38.339428,38.34211,38.34502,38.348354,38.351795,38.355072,38.35878,38.362167,38.365833,38.368153,38.371143,38.373352,38.376842,38.37963,38.383144,38.38527,38.387905,38.389492,38.39195,38.393818,38.395695,38.396996,38.398968,38.40085,38.402607,38.404213,38.40542,38.40714,38.409206,38.411247,38.41199,38.413383,38.414867,38.416428,38.417156,38.417614,38.417496,38.417206,38.416668,38.41519,38.413376,38.411102,38.40902,38.4069,38.404945,38.402958,38.401245,38.400333,38.399155,38.398125,38.3958,38.393406,38.390163,38.388054,38.38497,38.38278,38.380333,38.379074,38.377457,38.37644,38.375225,38.374184,38.37254,38.370724,38.368855,38.366913,38.365513,38.363205,38.36084,38.356506,38.35232,38.347054,38.34386,38.33933,38.336224,38.33069,38.326015,38.318882,38.31299,38.304585,38.29738,38.288532,38.28049,38.27103,38.2617,38.253246,38.24398,38.235924,38.22541,38.21649,38.20558,38.19837,38.189342,38.18365,38.175545,38.16994,38.160934,38.15378,38.144196,38.136707,38.1258,38.11644,38.10673,38.098804,38.090908,38.083015,38.075787,38.066925,38.05949,38.049274,38.041233,38.029907,38.021706,38.00977,38.00123,37.98879,37.97987,37.967506,37.95865,37.94743,37.939304,37.929626,37.92208,37.9144,37.907413,37.90022,37.892754,37.886963,37.880028,37.87459,37.8668,37.860542,37.85249,37.847424,37.83984,37.834335,37.826355,37.820522,37.81259,37.80653,37.79825,37.791164,37.782978,37.775608,37.767914,37.760784,37.75532,37.749218,37.744373,37.736298,37.728672,37.718082,37.710712,37.700542,37.693657,37.68353,37.67626,37.666702,37.660164,37.65147,37.644806,37.636444,37.629425,37.621952,37.615437,37.60982,37.604176,37.59921,37.59345,37.58923,37.583652,37.57965,37.573334,37.56834,37.561714,37.557457,37.551044,37.546295,37.540146,37.53583,37.53054,37.52667,37.522514,37.518997,37.51505,37.51106,37.507683,37.503803,37.500874,37.4961,37.491913,37.48471,37.47852,37.470524,37.465515,37.459145,37.455235,37.448315,37.44262,37.436848,37.43333,37.428516,37.424072,37.418434,37.413242,37.409325,37.405754,37.402557,37.39926,37.396942,37.394802,37.393684,37.393074,37.393253,37.39356,37.393826,37.393814,37.3936,37.394062,37.394928,37.39619,37.39753,37.39921,37.400867
38.431904,38.435104,38.43732,38.44022,38.442207,38.444088,38.445183,38.44654,38.44743,38.44767,38.448105,38.44902,38.450695,38.45228,38.454292,38.455692,38.457047,38.45756,38.458397,38.45903,38.460655,38.46229,38.464005,38.46512,38.467094,38.46888,38.4705,38.47173,38.47306,38.474392,38.47567,38.47689,38.477634,38.478333,38.478626,38.47965,38.48096,38.48231,38.482872,38.483646,38.484135,38.484554,38.48454,38.48385,38.482853,38.481903,38.481285,38.48107,38.480587,38.479866,38.47715,38.47301,38.46756,38.463833,38.45952,38.4568,38.453182,38.450672,38.447445,38.44543,38.442886,38.441326,38.438946,38.437237,38.435715,38.435184,38.434948,38.43518,38.43532,38.43562,38.436035,38.436474,38.436714,38.436802,38.43653,38.437035,38.43805,38.439796,38.441196,38.44316,38.44456,38.446987,38.449066,38.45154,38.453537,38.456593,38.459755,38.463413,38.467083,38.470493,38.47418,38.47746,38.480896,38.48304,38.485725,38.487656,38.490807,38.493416,38.496635,38.498554,38.50082,38.502094,38.504078,38.505524,38.50682,38.507603,38.50891,38.510227,38.5115,38.512768,38.51372,38.515335,38.51737,38.519485,38.52033,38.521954,38.52367,38.52556,38.526512,38.527313,38.527447,38.52755,38.52733,38.526264,38.52478,38.522945,38.52123,38.519478,38.51788,38.516293,38.514988,38.514397,38.513515,38.51269,38.510532,38.508198,38.504955,38.502792,38.49965,38.49743,38.494778,38.49328,38.491512,38.490486,38.489254,38.4883,38.486973,38.4855,38.483765,38.481888,38.480587,38.4784,38.476147,38.471878,38.467686,38.46236,38.4591,38.45443,38.451187,38.445683,38.441196,38.43435,38.428738,38.42081,38.414078,38.405857,38.39834,38.389362,38.380333,38.372128,38.36286,38.35462,38.343792,38.33466,38.323368,38.31582,38.306355,38.300404,38.29194,38.286106,38.27675,38.269337,38.25942,38.25173,38.240643,38.231205,38.221455,38.213512,38.2055,38.19758,38.19049,38.181877,38.17459,38.16461,38.1568,38.14578,38.137806,38.12612,38.117718,38.105526,38.096806,38.084652,38.075893,38.064766,38.05665,38.04682,38.03916,38.031666,38.024986,38.01798,38.010654,38.005,37.998116,37.99264,37.984756,37.978443,37.970253,37.965057,37.957256,37.951584,37.943375,37.937366,37.92917,37.922874,37.914318,37.907036,37.898685,37.891216,37.883335,37.876026,37.870464,37.864258,37.85929,37.8511,37.84341,37.832874,37.825634,37.81566,37.8089,37.79908,37.792107,37.78298,37.776768,37.768463,37.76208,37.754055,37.747257,37.739944,37.73347,37.72783,37.722103,37.717064,37.71123,37.706966,37.701363,37.697353,37.69101,37.685963,37.679276,37.674984,37.668537,37.66377,37.657547,37.653145,37.647835,37.643948,37.639713,37.6361,37.632076,37.62816,37.624973,37.621433,37.61878,37.61445,37.610565,37.604233,37.599026,37.59225,37.58798,37.582336,37.578697,37.5722,37.566772,37.56112,37.55753,37.552715,37.548275,37.542683,37.537354,37.53304,37.52892,37.525383,37.521523,37.518604,37.51565,37.51395,37.512646,37.51241,37.51215,37.512062,37.511642,37.511223,37.511288,37.511818,37.51276,37.513885,37.51524,37.516582
38.57914,38.582382,38.584564,38.587425,38.589382,38.591198,38.592205,38.593403,38.594173,38.5944,38.594887,38.595818,38.59756,38.59922,38.601414,38.60299,38.6046,38.605278,38.606415,38.607304,38.609287,38.611195,38.613262,38.614624,38.616882,38.61882,38.62057,38.62183,38.623184,38.624477,38.625687,38.626816,38.627495,38.628113,38.628345,38.6293,38.63056,38.63182,38.632298,38.632965,38.63338,38.633713,38.633644,38.632862,38.63177,38.630745,38.630085,38.629864,38.629417,38.628742,38.62617,38.622215,38.617077,38.613613,38.60972,38.60731,38.60415,38.60195,38.599155,38.597424,38.595287,38.594,38.591915,38.59035,38.588997,38.588516,38.58823,38.58831,38.58828,38.58836,38.588455,38.588863,38.589497,38.590115,38.590157,38.590866,38.591835,38.593864,38.595715,38.598377,38.600334,38.603546,38.606228,38.609634,38.61234,38.615925,38.61925,38.62309,38.626774,38.630154,38.633614,38.63656,38.63957,38.641453,38.643803,38.645493,38.648342,38.65076,38.653694,38.6554,38.65726,38.658154,38.659557,38.660492,38.66102,38.6611,38.66166,38.66237,38.662983,38.663757,38.66441,38.665966,38.66807,38.670467,38.67158,38.67365,38.67572,38.67804,38.67924,38.680443,38.680893,38.68145,38.68159,38.681103,38.680145,38.678967,38.677834,38.67666,38.675636,38.674698,38.67399,38.673767,38.67315,38.672455,38.670322,38.66792,38.664455,38.66204,38.658657,38.656338,38.65351,38.651863,38.649994,38.648956,38.6477,38.64678,38.64559,38.644268,38.64257,38.640705,38.639484,38.637383,38.635174,38.63098,38.62686,38.62161,38.61837,38.613712,38.61045,38.60525,38.60121,38.594894,38.58968,38.582336,38.576153,38.568737,38.561897,38.55346,38.544685,38.536594,38.52734,38.519135,38.50832,38.499287,38.48763,38.479393,38.468998,38.46246,38.453167,38.44676,38.436607,38.42866,38.41805,38.40997,38.398666,38.38932,38.379692,38.3719,38.363934,38.356106,38.349274,38.34093,38.33373,38.32386,38.31617,38.305363,38.297573,38.286182,38.278004,38.266247,38.257927,38.24625,38.237793,38.226982,38.21901,38.2093,38.201687,38.194332,38.187786,38.180847,38.173573,38.168022,38.1612,38.155724,38.14783,38.141525,38.133392,38.12829,38.12043,38.1146,38.106155,38.099957,38.091427,38.084835,38.07594,38.068405,38.059837,38.052177,38.043972,38.03638,38.03069,38.02441,38.019344,38.01111,38.003384,37.99302,37.986065,37.976402,37.96978,37.960228,37.953495,37.944782,37.938915,37.93097,37.92481,37.917156,37.91068,37.90362,37.897266,37.891655,37.8859,37.880856,37.87498,37.870647,37.86498,37.860943,37.85454,37.849434,37.842655,37.838276,37.831783,37.827023,37.82076,37.816303,37.81096,37.80705,37.802742,37.799057,37.79494,37.791004,37.787804,37.784496,37.78214,37.778603,37.775528,37.770645,37.766712,37.761463,37.75804,37.753418,37.750355,37.744957,37.740387,37.735123,37.73136,37.72655,37.722073,37.716454,37.710716,37.705452,37.7002,37.696075,37.691463,37.68781,37.68381,37.681293,37.678944,37.678043,37.67692,37.67629,37.6752,37.674374,37.673904,37.67408,37.67461,37.675434,37.676395,37.677406
38.68079,38.684128,38.686317,38.68923,38.691216,38.693027,38.69399,38.695114,38.6958,38.696014,38.69652,38.697468,38.69923,38.700912,38.703167,38.704792,38.706554,38.707382,38.7088,38.70993,38.712284,38.714466,38.716938,38.718586,38.721104,38.72315,38.724964,38.7262,38.727535,38.72879,38.729935,38.731014,38.731705,38.73236,38.73263,38.73362,38.73488,38.736126,38.736595,38.737213,38.73756,38.737823,38.737705,38.736877,38.73576,38.734684,38.734005,38.733814,38.733448,38.73283,38.730366,38.72651,38.72154,38.718212,38.714535,38.71231,38.709396,38.70738,38.70485,38.703327,38.70154,38.70054,38.69873,38.697285,38.69608,38.695663,38.695415,38.695454,38.695324,38.69524,38.695198,38.695408,38.69578,38.69635,38.696674,38.697563,38.698383,38.70061,38.702885,38.706215,38.70869,38.712666,38.715935,38.72021,38.72355,38.727524,38.73085,38.73463,38.738113,38.74133,38.74449,38.747074,38.74971,38.751396,38.75359,38.755215,38.757954,38.760277,38.763065,38.76467,38.76628,38.766903,38.767925,38.768517,38.768486,38.768063,38.768204,38.768593,38.768745,38.769146,38.76961,38.7712,38.77346,38.77619,38.77761,38.78009,38.782444,38.78508,38.786427,38.787884,38.788532,38.789352,38.789707,38.789627,38.789093,38.78842,38.78774,38.787052,38.786488,38.786095,38.785828,38.78582,38.785244,38.78451,38.782196,38.779617,38.775803,38.773056,38.76935,38.766903,38.76402,38.762424,38.760555,38.759502,38.75822,38.757248,38.75591,38.75443,38.752655,38.75079,38.74958,38.747494,38.745247,38.741108,38.73713,38.732086,38.728954,38.72451,38.721394,38.716652,38.713093,38.707287,38.702354,38.695393,38.689518,38.682636,38.676243,38.668064,38.659317,38.65111,38.641804,38.633827,38.623325,38.61463,38.60274,38.593777,38.58238,38.57522,38.565033,38.558014,38.54706,38.538593,38.527313,38.518852,38.507442,38.498318,38.48892,38.481396,38.473625,38.466003,38.45943,38.451256,38.444046,38.434116,38.426384,38.41557,38.407806,38.39657,38.38857,38.37718,38.369198,38.357975,38.349815,38.339333,38.331566,38.322166,38.31475,38.307396,38.30072,38.29367,38.286354,38.280807,38.274044,38.268593,38.26076,38.254486,38.246544,38.24172,38.23401,38.2281,38.219555,38.213257,38.204517,38.197727,38.188595,38.18089,38.172153,38.164318,38.155827,38.147987,38.14223,38.135963,38.130913,38.122726,38.11504,38.104893,38.098225,38.088825,38.082283,38.07281,38.066105,38.057537,38.05185,38.044,38.037888,38.03043,38.02419,38.01734,38.01114,38.005615,37.9999,37.99494,37.989086,37.984715,37.978973,37.97492,37.968483,37.96335,37.95649,37.952038,37.945526,37.94082,37.934593,37.930157,37.9248,37.920876,37.916595,37.91293,37.908806,37.904785,37.901363,37.89804,37.89586,37.893055,37.890865,37.887196,37.884083,37.87974,37.876762,37.872852,37.87033,37.866074,37.862484,37.857643,37.853657,37.848804,37.844208,37.83846,37.83223,37.82592,37.819542,37.814888,37.809742,37.80564,37.800945,37.797844,37.79471,37.793278,37.79149,37.790443,37.78879,37.787605,37.78679,37.786808,37.787083,37.78771,37.788467,37.789352
38.827583,38.83117,38.833477,38.836582,38.838703,38.840626,38.84162,38.842724,38.843384,38.84364,38.8442,38.845142,38.846912,38.848602,38.85091,38.852585,38.854458,38.85537,38.857018,38.85838,38.861107,38.863586,38.866478,38.86843,38.871292,38.87354,38.87551,38.87678,38.878128,38.879345,38.880455,38.88146,38.88208,38.88266,38.882904,38.883797,38.88495,38.886005,38.88632,38.88672,38.88692,38.886974,38.88672,38.88574,38.884533,38.88334,38.882587,38.88237,38.88204,38.881462,38.87914,38.875484,38.870823,38.867733,38.864414,38.862465,38.859894,38.8581,38.855816,38.854412,38.85285,38.852055,38.85045,38.849113,38.84806,38.847736,38.84757,38.847622,38.847477,38.847336,38.84722,38.847343,38.847588,38.84826,38.84892,38.85018,38.851162,38.853626,38.856064,38.859737,38.86254,38.86698,38.870625,38.875492,38.879276,38.883545,38.886883,38.890602,38.8939,38.896915,38.89977,38.90202,38.9043,38.905773,38.907803,38.909363,38.912037,38.914314,38.91704,38.91861,38.920097,38.92058,38.921356,38.92169,38.921272,38.920456,38.92007,38.919983,38.91974,38.919872,38.920147,38.921673,38.923965,38.92684,38.928425,38.931152,38.933704,38.93652,38.937923,38.939514,38.940296,38.94133,38.941887,38.942184,38.94203,38.941856,38.94162,38.941353,38.94118,38.94123,38.941364,38.94161,38.941185,38.940506,38.938145,38.935474,38.93145,38.9285,38.924557,38.92198,38.919044,38.917515,38.915756,38.9148,38.91358,38.912613,38.911236,38.909714,38.907955,38.906124,38.904934,38.902874,38.90064,38.896587,38.89272,38.887825,38.88479,38.880497,38.87749,38.873093,38.869904,38.864536,38.859882,38.853317,38.847786,38.841476,38.835613,38.827892,38.81944,38.81138,38.802258,38.794556,38.78453,38.77632,38.764915,38.75619,38.744884,38.73768,38.727085,38.719532,38.707905,38.698982,38.687084,38.67824,38.666645,38.657608,38.64832,38.640892,38.63309,38.625393,38.61885,38.610607,38.60323,38.593098,38.5852,38.57448,38.56699,38.556194,38.54852,38.537647,38.530075,38.519455,38.511745,38.501717,38.494186,38.485126,38.477886,38.470524,38.463696,38.45656,38.44919,38.443653,38.436916,38.431435,38.423706,38.41764,38.409943,38.40526,38.39758,38.39157,38.382893,38.37649,38.367577,38.360622,38.351307,38.343483,38.334667,38.32677,38.31815,38.31021,38.304432,38.298164,38.29311,38.284958,38.277313,38.267315,38.26082,38.251617,38.24518,38.235844,38.22923,38.220818,38.215244,38.20749,38.201405,38.194042,38.187885,38.181114,38.174915,38.169342,38.16353,38.1585,38.152557,38.148087,38.14223,38.1381,38.131546,38.126328,38.119358,38.114838,38.108242,38.103493,38.09721,38.09273,38.08735,38.083416,38.07908,38.075386,38.071335,38.06739,38.063942,38.060665,38.05856,38.056206,38.054638,38.051826,38.049282,38.04569,38.04317,38.04004,38.038136,38.035004,38.032333,38.028145,38.0243,38.019733,38.01533,38.009857,38.00363,37.996925,37.989975,37.98502,37.979477,37.97503,37.969715,37.96607,37.96211,37.96007,37.957497,37.955975,37.95366,37.95203,37.950665,37.95033,37.950115,37.95034,37.95061,37.95108
38.93353,38.937374,38.939835,38.943165,38.945446,38.94754,38.94863,38.94979,38.950493,38.950825,38.951435,38.952377,38.95412,38.955795,38.9581,38.9598,38.961674,38.96256,38.964252,38.96571,38.96861,38.97125,38.97433,38.976448,38.979534,38.981968,38.984077,38.985413,38.986794,38.987995,38.989124,38.99008,38.990597,38.991047,38.991226,38.991978,38.992992,38.993816,38.99393,38.99409,38.994152,38.993996,38.993595,38.992455,38.991158,38.989853,38.989033,38.98875,38.988403,38.987823,38.9856,38.982117,38.97771,38.97483,38.971786,38.970047,38.967716,38.966057,38.963833,38.9624,38.96083,38.960037,38.958458,38.957165,38.956177,38.95592,38.955826,38.95596,38.955887,38.955814,38.95574,38.955917,38.95619,38.95701,38.957855,38.959465,38.960796,38.963387,38.965656,38.96918,38.971928,38.97629,38.9799,38.98475,38.98854,38.992825,38.996155,38.999847,39.00305,39.005947,39.008648,39.010784,39.01294,39.014313,39.016285,39.01784,39.020542,39.02286,39.025658,39.027275,39.028862,39.029427,39.03025,39.030575,39.030178,39.029316,39.02864,39.028225,39.027878,39.028,39.028202,39.02961,39.031796,39.034557,39.036068,39.038734,39.041275,39.044037,39.04537,39.04689,39.04764,39.048717,39.049347,39.049755,39.049725,39.049744,39.04968,39.049538,39.04946,39.04959,39.049835,39.050224,39.049953,39.049377,39.047104,39.04449,39.04051,39.037575,39.03362,39.031006,39.028076,39.026592,39.024967,39.024166,39.02306,39.02213,39.020832,39.01938,39.017708,39.015926,39.014736,39.012695,39.010525,39.006535,39.002693,38.997814,38.99481,38.990532,38.987537,38.983185,38.980045,38.974785,38.97024,38.96385,38.958492,38.952446,38.946884,38.93956,38.931503,38.923756,38.914944,38.907425,38.89778,38.889954,38.879444,38.87172,38.861492,38.854813,38.844517,38.83685,38.82509,38.816025,38.803913,38.794888,38.783134,38.77401,38.764645,38.757103,38.74907,38.741074,38.73429,38.725784,38.718163,38.707813,38.699753,38.689156,38.68201,38.67166,38.664265,38.653755,38.64641,38.636208,38.62885,38.619125,38.611732,38.602848,38.595688,38.588295,38.581375,38.574192,38.566788,38.561253,38.554504,38.54896,38.541336,38.53554,38.528015,38.52328,38.515533,38.509464,38.50072,38.494293,38.48535,38.478382,38.469048,38.46124,38.452477,38.444675,38.436165,38.42832,38.422565,38.4163,38.41123,38.40307,38.39545,38.385445,38.37889,38.369694,38.363316,38.354084,38.34755,38.339184,38.333595,38.32584,38.319744,38.31231,38.306046,38.299164,38.29283,38.28711,38.281128,38.27594,38.26984,38.26529,38.259335,38.255116,38.24844,38.24313,38.236076,38.23153,38.22484,38.219975,38.213566,38.209007,38.20359,38.19966,38.195225,38.19147,38.187523,38.183758,38.18045,38.177227,38.17504,38.17262,38.171055,38.16827,38.165718,38.16225,38.159927,38.15718,38.155636,38.15298,38.15067,38.147,38.143578,38.139477,38.13546,38.130497,38.124756,38.118492,38.111835,38.106987,38.101414,38.09693,38.09145,38.087616,38.083286,38.080906,38.0779,38.076103,38.0734,38.0715,38.069714,38.069042,38.06841,38.068264,38.068047,38.06806
39.074543,39.07864,39.081234,39.084774,39.087227,39.08953,39.090786,39.092068,39.09287,39.09334,39.094074,39.095093,39.096867,39.098526,39.10081,39.102524,39.104393,39.105255,39.107,39.108562,39.11167,39.114532,39.117878,39.120186,39.12355,39.126175,39.128433,39.12982,39.131233,39.13244,39.133587,39.134556,39.135044,39.135494,39.13573,39.136517,39.13753,39.138306,39.13835,39.138462,39.13851,39.138306,39.137867,39.136665,39.13533,39.133972,39.13311,39.132774,39.132412,39.13182,39.129692,39.126396,39.122295,39.11967,39.116997,39.115543,39.113552,39.112095,39.110065,39.108696,39.107243,39.10654,39.105072,39.10385,39.102974,39.102806,39.1028,39.102993,39.103,39.102985,39.102947,39.10315,39.103436,39.104317,39.105225,39.10698,39.108463,39.111156,39.11342,39.11694,39.119686,39.12409,39.127735,39.1325,39.136166,39.140373,39.143658,39.14722,39.15028,39.153065,39.15567,39.157715,39.15982,39.16118,39.163223,39.1649,39.16779,39.170242,39.173233,39.17499,39.17681,39.17757,39.178596,39.179028,39.178753,39.177937,39.177208,39.176662,39.176186,39.176136,39.17617,39.177372,39.17937,39.181908,39.183254,39.18577,39.18826,39.190872,39.192036,39.193405,39.19412,39.19519,39.19589,39.196373,39.196445,39.196724,39.19692,39.19691,39.19687,39.19703,39.197323,39.197815,39.19766,39.19712,39.1949,39.192314,39.18839,39.185474,39.181755,39.179455,39.176716,39.17521,39.173542,39.172684,39.171604,39.17076,39.16953,39.168137,39.166565,39.164898,39.163773,39.161846,39.159824,39.155952,39.152126,39.147247,39.144253,39.139954,39.13692,39.1325,39.129307,39.124134,39.119766,39.113564,39.108402,39.102688,39.09763,39.091236,39.084084,39.076805,39.06833,39.061142,39.05195,39.044468,39.034603,39.027493,39.01805,39.011852,39.002224,38.995018,38.983494,38.97431,38.96193,38.95257,38.94053,38.931217,38.921627,38.91382,38.905357,38.896862,38.88966,38.88078,38.872833,38.862545,38.85491,38.844833,38.837933,38.82788,38.820656,38.810364,38.80315,38.79336,38.786438,38.777027,38.769714,38.760983,38.753864,38.746403,38.73934,38.73204,38.724594,38.719135,38.712505,38.706955,38.69959,38.69425,38.68712,38.68246,38.674835,38.668858,38.660233,38.653873,38.64508,38.638252,38.629112,38.62146,38.612846,38.60517,38.59685,38.589108,38.58333,38.57694,38.571762,38.563473,38.55578,38.5456,38.538857,38.529465,38.523014,38.51367,38.50707,38.49857,38.492867,38.485016,38.478867,38.471333,38.46497,38.457973,38.45152,38.44568,38.439552,38.43422,38.427982,38.423378,38.41736,38.413105,38.406338,38.400936,38.393757,38.389137,38.382267,38.377235,38.370625,38.365932,38.36038,38.35634,38.35169,38.347782,38.343826,38.34011,38.336826,38.333557,38.33124,38.32876,38.32726,38.324585,38.322086,38.31876,38.31656,38.314327,38.31338,38.31147,38.30968,38.306797,38.304043,38.300724,38.297325,38.292946,38.28769,38.28195,38.27566,38.270905,38.26531,38.260857,38.255173,38.251057,38.24621,38.243397,38.239803,38.237617,38.23433,38.232,38.229733,38.228745,38.22766,38.227104,38.226337,38.225826
39.17917,39.183422,39.186108,39.189785,39.192352,39.194828,39.196236,39.19765,39.198566,39.19917,39.20002,39.201134,39.202957,39.20461,39.206867,39.208565,39.210407,39.21125,39.213005,39.214603,39.217846,39.220856,39.224392,39.226833,39.230377,39.23314,39.235504,39.236935,39.238384,39.239613,39.240803,39.241833,39.24236,39.242912,39.243282,39.244225,39.245346,39.24623,39.246334,39.246536,39.24667,39.246555,39.246174,39.24503,39.243717,39.242382,39.24153,39.241196,39.240837,39.240246,39.238197,39.23501,39.23112,39.228687,39.22628,39.22505,39.223316,39.222,39.220146,39.21887,39.21754,39.216915,39.21555,39.21441,39.21363,39.21355,39.213627,39.21388,39.213966,39.214024,39.21402,39.214245,39.214565,39.21542,39.216255,39.217926,39.219357,39.222057,39.22439,39.22796,39.2307,39.235146,39.23884,39.243515,39.24703,39.25115,39.254383,39.25783,39.2608,39.26353,39.266144,39.268192,39.270355,39.27178,39.273975,39.275814,39.27893,39.281532,39.284737,39.286644,39.28872,39.289684,39.290977,39.291595,39.291542,39.29088,39.29036,39.289925,39.289406,39.2892,39.28909,39.2901,39.291943,39.294273,39.295452,39.2978,39.300232,39.30269,39.30369,39.304913,39.305573,39.306606,39.307312,39.307785,39.307877,39.308308,39.308655,39.3087,39.308613,39.308716,39.308945,39.309437,39.309284,39.308735,39.306515,39.30395,39.300083,39.29722,39.293793,39.29187,39.289356,39.287804,39.286007,39.28498,39.283867,39.283085,39.281868,39.280506,39.27898,39.27739,39.276337,39.274517,39.27263,39.268845,39.26502,39.260136,39.25714,39.25281,39.24972,39.245167,39.241837,39.236637,39.232372,39.226227,39.22114,39.215603,39.21091,39.20528,39.198914,39.192017,39.183804,39.17693,39.168064,39.160774,39.15114,39.14416,39.13505,39.12916,39.12026,39.113754,39.1028,39.09374,39.08126,39.0716,39.05928,39.049732,39.039867,39.03175,39.022884,39.013943,39.00632,38.9971,38.9889,38.978767,38.97169,38.96208,38.95521,38.945225,38.938057,38.92786,38.920723,38.91121,38.904568,38.895298,38.887962,38.879246,38.872112,38.86456,38.85738,38.84997,38.842506,38.837124,38.83063,38.82513,38.817966,38.812912,38.806034,38.801426,38.79396,38.788162,38.77978,38.773598,38.76508,38.75849,38.74966,38.74225,38.73382,38.72627,38.718155,38.710537,38.70474,38.698227,38.692963,38.684532,38.676765,38.666378,38.659412,38.64976,38.643173,38.633625,38.626858,38.618122,38.61225,38.604233,38.598003,38.590355,38.583904,38.576824,38.570324,38.564434,38.558273,38.5529,38.54663,38.542023,38.536007,38.53177,38.524975,38.519524,38.512253,38.507557,38.50053,38.49534,38.488552,38.483738,38.47801,38.473816,38.46895,38.464863,38.46082,38.45705,38.45369,38.450287,38.447803,38.445168,38.44364,38.44093,38.438396,38.435047,38.432816,38.430904,38.43044,38.429066,38.427643,38.4254,38.423233,38.420624,38.41777,38.41384,38.40894,38.403694,38.39781,38.393192,38.387688,38.383373,38.37769,38.37343,38.368305,38.365246,38.361294,38.358845,38.355137,38.352474,38.349895,38.34875,38.347374,38.34653,38.345375,38.3445
39.309914,39.314476,39.31737,39.32135,39.324142,39.326813,39.328327,39.32987,39.330887,39.331577,39.33251,39.333687,39.335556,39.33723,39.339485,39.341145,39.342957,39.34379,39.34558,39.34724,39.35065,39.35385,39.357677,39.360363,39.364216,39.367195,39.36976,39.371307,39.37285,39.374134,39.375378,39.37648,39.37706,39.377712,39.378197,39.37925,39.38041,39.38131,39.381397,39.381542,39.38161,39.381447,39.38105,39.379936,39.37868,39.377396,39.376602,39.37635,39.376102,39.375618,39.373737,39.370728,39.36712,39.36494,39.36287,39.36189,39.360405,39.359207,39.357464,39.35621,39.35495,39.354374,39.353127,39.352104,39.35151,39.351604,39.351887,39.352325,39.35261,39.352814,39.352894,39.353188,39.353592,39.354523,39.35538,39.35706,39.35848,39.361187,39.36354,39.367146,39.36992,39.37448,39.37834,39.38343,39.387333,39.39167,39.394897,39.398327,39.401207,39.40386,39.406387,39.408386,39.410515,39.41192,39.414177,39.416138,39.419407,39.422104,39.425438,39.427437,39.429676,39.430782,39.432236,39.43297,39.4331,39.432587,39.432194,39.43179,39.431267,39.43099,39.4308,39.43172,39.433487,39.43578,39.43697,39.43936,39.441833,39.4443,39.44528,39.446484,39.447147,39.448193,39.448936,39.449486,39.449673,39.450264,39.450768,39.450943,39.45093,39.451057,39.451286,39.451786,39.45162,39.451046,39.448788,39.44619,39.442287,39.43943,39.435894,39.43381,39.431232,39.42975,39.428062,39.42714,39.426052,39.425217,39.423954,39.422546,39.420975,39.419353,39.41828,39.416466,39.414593,39.41089,39.407154,39.402416,39.399525,39.39532,39.39232,39.387814,39.384487,39.379257,39.374943,39.368702,39.363575,39.358227,39.35376,39.348103,39.341743,39.33511,39.32737,39.32091,39.312565,39.305676,39.29653,39.289886,39.28128,39.275787,39.267303,39.26097,39.250805,39.24257,39.230076,39.219734,39.206978,39.197197,39.187023,39.17861,39.169422,39.16012,39.152164,39.142555,39.134026,39.123463,39.116016,39.10609,39.09911,39.089314,39.082523,39.073082,39.066647,39.05786,39.05156,39.042507,39.035122,39.02639,39.01918,39.011524,39.004234,38.996723,38.989204,38.983837,38.977364,38.97192,38.964603,38.95924,38.95194,38.947014,38.939423,38.933754,38.9257,38.919865,38.911797,38.905552,38.897167,38.89007,38.881874,38.87446,38.86656,38.859154,38.85348,38.847088,38.841908,38.833595,38.825935,38.815586,38.80856,38.79886,38.792282,38.78263,38.775723,38.766747,38.76067,38.752403,38.746,38.73815,38.73158,38.724445,38.717964,38.712116,38.706043,38.700775,38.694603,38.690018,38.683975,38.67971,38.672832,38.667294,38.659855,38.655,38.647766,38.642437,38.63549,38.63058,38.624718,38.620407,38.615356,38.611145,38.607113,38.60336,38.599907,38.596264,38.593483,38.590523,38.58883,38.58593,38.58327,38.57987,38.577667,38.57608,38.576054,38.57533,38.574455,38.5729,38.571255,38.569298,38.566975,38.563583,38.559166,38.554405,38.54893,38.544563,38.53932,38.535263,38.529804,38.52564,38.52048,38.51731,38.51314,38.510506,38.506424,38.50341,38.50044,38.499012,38.49717,38.495876,38.494183,38.49283
39.421265,39.426167,39.429302,39.4336,39.436607,39.43944,39.44102,39.442684,39.44379,39.444527,39.445477,39.446663,39.44855,39.45027,39.452522,39.45412,39.455875,39.4567,39.45852,39.460217,39.46373,39.467037,39.47109,39.474007,39.478146,39.48136,39.484165,39.48588,39.48756,39.488964,39.49031,39.491497,39.492134,39.49286,39.493412,39.494514,39.49567,39.49652,39.49656,39.496586,39.49654,39.496277,39.495846,39.494762,39.49358,39.492355,39.49163,39.49151,39.491413,39.49105,39.489334,39.48649,39.483128,39.481167,39.479374,39.478596,39.47732,39.476208,39.47453,39.47328,39.47205,39.471516,39.47038,39.46949,39.46909,39.469383,39.469902,39.47057,39.471085,39.471485,39.47168,39.472084,39.47261,39.47367,39.474625,39.476345,39.477753,39.480427,39.482754,39.486332,39.48909,39.493702,39.49767,39.503193,39.50759,39.512306,39.51571,39.519287,39.52221,39.524853,39.527348,39.52936,39.531475,39.532814,39.535023,39.536983,39.54025,39.54292,39.54623,39.54821,39.550472,39.55163,39.55316,39.553978,39.554268,39.553894,39.553623,39.553284,39.55281,39.552544,39.55234,39.553246,39.555008,39.55738,39.558674,39.56122,39.5638,39.56642,39.567505,39.56882,39.56953,39.570637,39.571415,39.57206,39.572353,39.573063,39.573666,39.573956,39.57404,39.574215,39.574455,39.574932,39.57474,39.574173,39.571922,39.56932,39.565445,39.562656,39.558933,39.5565,39.553753,39.552364,39.550858,39.550114,39.54902,39.548046,39.54668,39.54517,39.543465,39.5417,39.540512,39.538574,39.536575,39.532825,39.529163,39.524544,39.52175,39.5177,39.514816,39.510433,39.507153,39.501896,39.497498,39.491184,39.486008,39.48067,39.47613,39.469975,39.46321,39.456726,39.44942,39.443268,39.43536,39.428864,39.420204,39.413857,39.405674,39.400513,39.392174,39.385715,39.37616,39.368797,39.356617,39.345974,39.33293,39.322853,39.31237,39.30371,39.29429,39.28475,39.276566,39.26664,39.25789,39.24679,39.238655,39.228188,39.221107,39.21161,39.20532,39.196774,39.191116,39.182907,39.17668,39.167664,39.16018,39.151356,39.144054,39.136272,39.128887,39.12133,39.11379,39.10837,39.101868,39.0965,39.088894,39.082977,39.07499,39.069622,39.061787,39.056217,39.048393,39.04283,39.03505,39.028988,39.020824,39.013885,39.005856,38.998608,38.990948,38.983803,38.978348,38.97219,38.967194,38.959114,38.95165,38.94147,38.934483,38.924892,38.91844,38.90886,38.901924,38.89284,38.88662,38.87818,38.871647,38.86365,38.857006,38.849857,38.843452,38.8377,38.83178,38.82669,38.820663,38.81609,38.81004,38.805748,38.79888,38.793404,38.785976,38.78108,38.773766,38.768353,38.761276,38.75625,38.7502,38.745705,38.740402,38.735996,38.731926,38.728153,38.724594,38.72071,38.71763,38.71428,38.71232,38.709114,38.706234,38.70268,38.70048,38.699024,38.699203,38.698895,38.698444,38.697353,38.69606,38.694534,38.692623,38.689735,38.685856,38.681652,38.67671,38.67269,38.667824,38.66406,38.658947,38.655018,38.649998,38.646793,38.642536,38.63983,38.63557,38.632366,38.629105,38.627403,38.62514,38.623444,38.62128,38.619503
39.543243,39.548515,39.551872,39.55645,39.559624,39.562614,39.564297,39.56615,39.5674,39.568176,39.569122,39.570297,39.572197,39.573944,39.57615,39.57764,39.579308,39.580112,39.581944,39.583683,39.58726,39.590637,39.594856,39.597977,39.60242,39.605934,39.609047,39.611004,39.612915,39.614513,39.61605,39.617363,39.618027,39.61875,39.619324,39.62041,39.621548,39.62233,39.62229,39.622223,39.622116,39.621838,39.62144,39.620426,39.61933,39.618195,39.617558,39.617546,39.617573,39.617294,39.61571,39.613056,39.609966,39.608227,39.606762,39.606255,39.60529,39.604355,39.602825,39.601612,39.600464,39.600006,39.59901,39.59826,39.59806,39.598545,39.599297,39.600197,39.600998,39.60166,39.60202,39.602615,39.603313,39.60459,39.605717,39.607555,39.608967,39.61158,39.613827,39.617245,39.61986,39.62429,39.628147,39.633522,39.63793,39.64308,39.64706,39.65102,39.65414,39.656876,39.659416,39.66157,39.663746,39.665024,39.667088,39.668915,39.671997,39.674557,39.677692,39.67954,39.681755,39.682976,39.684647,39.685616,39.68611,39.685925,39.68587,39.68567,39.685253,39.684944,39.684658,39.685455,39.68714,39.689465,39.690735,39.693336,39.69603,39.6988,39.699978,39.701427,39.702225,39.703407,39.704216,39.704952,39.70534,39.7062,39.70693,39.707314,39.70743,39.707615,39.707844,39.7083,39.708168,39.707695,39.705612,39.70314,39.69957,39.69709,39.693634,39.691277,39.688595,39.68721,39.685734,39.68498,39.683758,39.682606,39.681084,39.67943,39.67755,39.675575,39.674168,39.671974,39.669758,39.66579,39.662003,39.65729,39.654472,39.65042,39.647556,39.64315,39.639824,39.634647,39.630413,39.624462,39.619568,39.614063,39.60918,39.602955,39.596375,39.590187,39.583256,39.5773,39.569702,39.56356,39.555367,39.549343,39.5416,39.536774,39.52875,39.5224,39.51298,39.505737,39.49443,39.484684,39.47152,39.460613,39.44956,39.440437,39.430557,39.420593,39.411964,39.4017,39.392815,39.381687,39.37351,39.363308,39.356617,39.347885,39.342297,39.334576,39.329372,39.32119,39.314556,39.30523,39.29756,39.288586,39.281166,39.273094,39.26548,39.25791,39.25043,39.244987,39.238514,39.23331,39.225677,39.219524,39.211155,39.205494,39.197502,39.19202,39.184174,39.17852,39.17056,39.16432,39.155857,39.148773,39.141037,39.13434,39.12719,39.120487,39.115314,39.109356,39.10448,39.09653,39.089188,39.07904,39.071968,39.06241,39.05609,39.046688,39.039867,39.03081,39.024517,39.016075,39.009544,39.00149,38.99476,38.98754,38.981075,38.975296,38.969345,38.964233,38.958134,38.953426,38.9473,38.942997,38.93642,38.93135,38.924442,38.919865,38.912735,38.907253,38.89997,38.894638,38.888115,38.883106,38.877094,38.872097,38.867653,38.8637,38.860077,38.856075,38.85278,38.849155,38.847054,38.843544,38.84033,38.83647,38.834164,38.832714,38.833023,38.83296,38.83277,38.83217,38.83138,38.83043,38.829086,38.82694,38.82393,38.820755,38.81672,38.813133,38.808544,38.804996,38.80005,38.796234,38.791077,38.78758,38.783,38.780136,38.7757,38.7724,38.768913,38.76696,38.764378,38.762344,38.759705,38.75741
39.668346,39.674034,39.677654,39.682545,39.685905,39.6891,39.69094,39.69302,39.694447,39.695286,39.696243,39.697433,39.699333,39.70111,39.703262,39.704636,39.70617,39.706917,39.70869,39.7104,39.713936,39.71729,39.721558,39.7248,39.729477,39.733246,39.73665,39.738865,39.741035,39.74288,39.74464,39.74613,39.746872,39.74765,39.748253,39.749348,39.750465,39.7512,39.751095,39.75093,39.75076,39.750423,39.750027,39.749012,39.74792,39.746777,39.746128,39.74613,39.746185,39.7459,39.74439,39.741867,39.738995,39.737434,39.73626,39.736008,39.735363,39.734642,39.73334,39.732235,39.731274,39.730984,39.73021,39.72964,39.729652,39.730312,39.731274,39.73237,39.733387,39.734264,39.73474,39.735477,39.736317,39.737762,39.739017,39.740932,39.742317,39.744846,39.746975,39.750187,39.75262,39.7568,39.760475,39.76551,39.769733,39.775146,39.77965,39.784023,39.787464,39.79046,39.793262,39.795727,39.798084,39.79932,39.801216,39.80287,39.805733,39.80814,39.81109,39.812813,39.814972,39.816257,39.818085,39.81925,39.819996,39.820023,39.820225,39.82021,39.819927,39.819637,39.819298,39.820015,39.82167,39.82399,39.82527,39.82798,39.830822,39.8338,39.83513,39.83678,39.83771,39.839005,39.839848,39.840668,39.841145,39.842117,39.842937,39.843372,39.843487,39.843655,39.843872,39.844303,39.844223,39.843853,39.841988,39.8397,39.836487,39.834335,39.83127,39.82914,39.82661,39.8252,39.82365,39.822796,39.821415,39.820114,39.81846,39.816685,39.814674,39.812515,39.810925,39.80847,39.806034,39.801815,39.79786,39.792973,39.790062,39.785946,39.783073,39.77863,39.775265,39.770103,39.765926,39.760223,39.75552,39.74971,39.74443,39.73827,39.732006,39.726055,39.71934,39.71347,39.70608,39.700233,39.69248,39.686768,39.679478,39.675003,39.66739,39.661263,39.651833,39.64443,39.63401,39.625446,39.612633,39.60138,39.5901,39.5807,39.57054,39.560253,39.55125,39.54072,39.531796,39.520832,39.512882,39.503014,39.49654,39.4881,39.482693,39.47507,39.469807,39.46129,39.454235,39.444553,39.436737,39.427658,39.420216,39.412025,39.404327,39.396786,39.38936,39.383892,39.377453,39.372387,39.364887,39.358765,39.350403,39.344723,39.336826,39.331516,39.323673,39.31786,39.309586,39.30299,39.293987,39.28651,39.278606,39.27203,39.265068,39.25861,39.253616,39.247803,39.242985,39.235115,39.227875,39.217823,39.210747,39.20135,39.19526,39.186203,39.17965,39.17081,39.164585,39.156322,39.149963,39.142048,39.135406,39.128323,39.12202,39.11642,39.110676,39.10572,39.09975,39.095078,39.08907,39.08488,39.078663,39.073994,39.067593,39.063328,39.056366,39.05079,39.043262,39.0376,39.030624,39.025158,39.018513,39.013,39.00824,39.00411,39.00037,38.996136,38.992523,38.98841,38.9859,38.981945,38.978504,38.974403,38.971992,38.97049,38.97083,38.970837,38.970768,38.970467,38.970028,38.9695,38.968628,38.967075,38.964943,38.963013,38.960236,38.957375,38.953346,38.950157,38.945496,38.941837,38.93659,38.932804,38.92793,38.924927,38.92039,38.91708,38.91336,38.911106,38.908104,38.905678,38.90259,38.899864
39.786682,39.792805,39.796753,39.802017,39.805637,39.809086,39.8111,39.813396,39.815,39.81595,39.81697,39.81822,39.820164,39.82197,39.824062,39.82532,39.826683,39.827305,39.8289,39.830482,39.833862,39.83713,39.84137,39.844677,39.84946,39.853367,39.85695,39.859364,39.861725,39.86377,39.86571,39.867405,39.86831,39.86925,39.869965,39.871155,39.872307,39.87304,39.872917,39.872665,39.872383,39.87192,39.871426,39.870277,39.86907,39.86776,39.866955,39.866814,39.86676,39.86638,39.864853,39.862366,39.85964,39.8582,39.857243,39.857162,39.85678,39.85625,39.85521,39.854275,39.853592,39.85352,39.853046,39.852688,39.852936,39.853733,39.85484,39.856033,39.85715,39.85807,39.85856,39.859303,39.86019,39.861656,39.86288,39.864723,39.86603,39.868446,39.87051,39.8736,39.87593,39.880028,39.88369,39.888706,39.89294,39.898335,39.90291,39.907505,39.911316,39.91473,39.918015,39.92094,39.923546,39.924706,39.9264,39.927917,39.930614,39.932934,39.935825,39.937565,39.939777,39.941128,39.943134,39.944504,39.94551,39.945763,39.946198,39.94637,39.94628,39.94612,39.945816,39.94656,39.948273,39.95072,39.952126,39.95504,39.958027,39.961254,39.962776,39.964676,39.965755,39.967197,39.96809,39.969,39.96955,39.97058,39.97142,39.971855,39.971954,39.972115,39.972294,39.97268,39.97259,39.972275,39.970547,39.968376,39.965336,39.96331,39.96041,39.958378,39.955944,39.954525,39.952923,39.951965,39.95052,39.94918,39.94747,39.94565,39.943607,39.94141,39.939777,39.93725,39.934715,39.93039,39.92636,39.92139,39.91841,39.91425,39.91138,39.907013,39.903755,39.898457,39.89401,39.88797,39.883007,39.87693,39.871532,39.865387,39.859215,39.85331,39.846672,39.840862,39.83368,39.82809,39.82075,39.81536,39.808594,39.804527,39.79739,39.791523,39.782394,39.775154,39.76503,39.756794,39.744823,39.73439,39.723602,39.71433,39.704273,39.69392,39.68477,39.674084,39.665127,39.65419,39.646374,39.636272,39.62934,39.619995,39.61378,39.605213,39.59942,39.590588,39.583622,39.573895,39.56605,39.55703,39.549736,39.54182,39.534348,39.526833,39.519344,39.51385,39.50741,39.502335,39.494976,39.48907,39.481075,39.475693,39.46824,39.46325,39.455776,39.45015,39.44187,39.435036,39.42561,39.417572,39.40873,39.401314,39.393894,39.38733,39.382343,39.37661,39.371784,39.363956,39.356823,39.346966,39.340042,39.330914,39.325047,39.316315,39.310005,39.301384,39.29524,39.287136,39.280933,39.273212,39.26684,39.26018,39.254444,39.24943,39.24439,39.240032,39.234726,39.230526,39.22506,39.221256,39.215347,39.210747,39.204357,39.200054,39.1929,39.18709,39.1793,39.173454,39.16629,39.16071,39.153946,39.14836,39.14366,39.139465,39.135468,39.13063,39.126408,39.12132,39.117844,39.11328,39.109978,39.10603,39.10366,39.102245,39.102646,39.102802,39.102863,39.10271,39.102398,39.10206,39.10142,39.10001,39.098423,39.097706,39.096478,39.09471,39.09172,39.089176,39.085033,39.081604,39.0764,39.072468,39.067394,39.064247,39.059544,39.05611,39.05199,39.049236,39.045467,39.042385,39.038826,39.035873
39.92656,39.93316,39.937492,39.943207,39.94712,39.950893,39.953125,39.955685,39.95748,39.958565,39.95968,39.961006,39.963013,39.964878,39.966957,39.968166,39.969433,39.96998,39.97145,39.972946,39.976208,39.979393,39.983597,39.986935,39.99179,39.995804,39.999542,40.002132,40.004692,40.006958,40.009075,40.01101,40.012135,40.013325,40.01418,40.015503,40.016697,40.017464,40.017334,40.016964,40.016533,40.015842,40.01519,40.013832,40.012478,40.010967,40.010002,40.00972,40.009575,40.009132,40.007603,40.005154,40.002537,40.0012,40.00043,40.000523,40.00041,40.000084,39.99936,39.998646,39.998302,39.9985,39.998386,39.99828,39.998795,39.999756,40.001034,40.002335,40.00353,40.00446,40.00493,40.00561,40.00648,40.007896,40.009052,40.010796,40.01203,40.01436,40.016365,40.019337,40.021553,40.025524,40.029087,40.034008,40.038162,40.043312,40.047703,40.052315,40.05636,40.060093,40.06379,40.067055,40.069973,40.07129,40.073154,40.074806,40.077618,40.079956,40.082924,40.084755,40.087055,40.088474,40.090637,40.092175,40.093422,40.093887,40.094505,40.09483,40.094933,40.094936,40.094692,40.095524,40.09735,40.100014,40.101624,40.10482,40.10798,40.11147,40.11321,40.11535,40.116554,40.1181,40.119015,40.119995,40.120594,40.12167,40.122547,40.123016,40.12315,40.123352,40.12354,40.123875,40.12375,40.12343,40.121758,40.119686,40.116737,40.11473,40.11192,40.10998,40.107624,40.10622,40.10454,40.10347,40.101963,40.100624,40.098896,40.097073,40.095062,40.092903,40.09128,40.08874,40.086155,40.081783,40.077744,40.07275,40.069736,40.065594,40.06281,40.05849,40.055214,40.049614,40.044758,40.038246,40.032974,40.02666,40.021214,40.01506,40.008945,40.003036,39.996437,39.990692,39.983738,39.978416,39.971455,39.966328,39.96,39.956306,39.949608,39.94399,39.935177,39.928135,39.91815,39.910057,39.89895,39.889523,39.8794,39.87042,39.860653,39.850403,39.841217,39.83041,39.821377,39.810326,39.80251,39.791996,39.78449,39.774136,39.76707,39.757557,39.7513,39.74229,39.735554,39.7259,39.71807,39.70913,39.702015,39.69442,39.68724,39.679806,39.6723,39.666782,39.66035,39.655296,39.648087,39.642372,39.634697,39.629566,39.622494,39.617775,39.61056,39.60502,39.596725,39.589767,39.58035,39.572136,39.56239,39.55388,39.54567,39.538666,39.533493,39.527763,39.52291,39.515232,39.50828,39.49882,39.492245,39.483673,39.47827,39.47017,39.464275,39.45618,39.45038,39.442745,39.43693,39.429745,39.423904,39.41786,39.41276,39.40839,39.404022,39.400234,39.395496,39.391697,39.386497,39.38275,39.376743,39.37197,39.365334,39.36086,39.353565,39.347717,39.33978,39.333813,39.32663,39.321144,39.314526,39.30912,39.304657,39.30054,39.29641,39.291145,39.286484,39.28065,39.276432,39.271267,39.26785,39.26382,39.26144,39.25998,39.260345,39.260525,39.260654,39.260452,39.26005,39.25972,39.259228,39.25804,39.25696,39.256996,39.256805,39.255974,39.253994,39.252113,39.248646,39.24563,39.240826,39.237083,39.23218,39.229107,39.224518,39.221157,39.216885,39.21383,39.209614,39.20612,39.20219,39.19898
40.037792,40.044743,40.04936,40.05541,40.05955,40.063576,40.065994,40.06876,40.070694,40.071877,40.07303,40.074383,40.07641,40.078297,40.080425,40.081654,40.08295,40.08351,40.08503,40.086567,40.089832,40.093,40.097218,40.100594,40.105515,40.109615,40.11345,40.11616,40.118877,40.121296,40.123535,40.125607,40.12688,40.128223,40.129177,40.13057,40.131783,40.132538,40.13238,40.131878,40.13126,40.130352,40.12953,40.12802,40.126595,40.125004,40.12403,40.12376,40.123676,40.12329,40.121853,40.119488,40.11697,40.11569,40.115047,40.115276,40.115368,40.115196,40.11468,40.114124,40.114006,40.11436,40.114475,40.114544,40.115265,40.116364,40.11781,40.119232,40.120533,40.121513,40.121952,40.12258,40.12341,40.124767,40.125885,40.127583,40.12881,40.1311,40.13307,40.135933,40.138042,40.141792,40.145145,40.14982,40.153778,40.158676,40.16288,40.167355,40.171368,40.175106,40.17886,40.182095,40.185253,40.18701,40.1895,40.191597,40.19482,40.197296,40.20042,40.202328,40.20474,40.20622,40.208454,40.210037,40.211372,40.211906,40.21258,40.21295,40.213142,40.21324,40.21305,40.21398,40.215923,40.218784,40.220604,40.224007,40.227264,40.23092,40.232777,40.235016,40.23623,40.23775,40.23861,40.239574,40.24019,40.24133,40.24228,40.242836,40.243053,40.243355,40.24361,40.243935,40.243748,40.243362,40.24166,40.23961,40.236664,40.234627,40.231834,40.22997,40.22766,40.226276,40.224545,40.22339,40.22184,40.220505,40.218773,40.21698,40.215015,40.2129,40.21128,40.208706,40.206078,40.201687,40.197662,40.19273,40.189747,40.18574,40.183125,40.178772,40.175285,40.169334,40.16416,40.15742,40.152077,40.14563,40.14011,40.133957,40.127914,40.12207,40.1156,40.109978,40.10325,40.098175,40.09148,40.086452,40.08032,40.076805,40.070297,40.06476,40.056053,40.04907,40.039253,40.031345,40.0205,40.011307,40.001404,39.99259,39.983036,39.972904,39.963737,39.952827,39.943657,39.93239,39.924385,39.91363,39.905975,39.89547,39.888348,39.878853,39.872684,39.863796,39.857143,39.847523,39.839684,39.830753,39.82366,39.816116,39.80899,39.80166,39.79421,39.788666,39.782227,39.777267,39.770096,39.764317,39.756523,39.751286,39.74415,39.73945,39.732082,39.72633,39.717922,39.71105,39.70222,39.69455,39.684593,39.675396,39.666595,39.659115,39.65369,39.64793,39.643147,39.635735,39.629032,39.620033,39.613842,39.605972,39.60115,39.593822,39.588444,39.581066,39.575787,39.568836,39.563553,39.55708,39.55181,39.54625,39.541485,39.537403,39.533245,39.529625,39.52494,39.52115,39.515606,39.511314,39.50472,39.499676,39.492767,39.488163,39.481,39.475456,39.46759,39.46152,39.454376,39.449013,39.44255,39.43733,39.433044,39.429096,39.425087,39.41992,39.415337,39.40954,39.405376,39.399837,39.39579,39.39117,39.388615,39.386894,39.3871,39.387196,39.387356,39.38704,39.386517,39.386147,39.38583,39.385227,39.38464,39.384544,39.38416,39.383484,39.38184,39.38019,39.377182,39.37459,39.370407,39.367107,39.362736,39.359936,39.355797,39.352757,39.348747,39.345764,39.34179,39.33841,39.334286,39.33063
40.181038,40.188313,40.193195,40.199535,40.203865,40.20811,40.210712,40.21368,40.21579,40.217106,40.21838,40.219837,40.221996,40.224003,40.226284,40.227604,40.229065,40.229755,40.231445,40.233097,40.236473,40.23969,40.243996,40.24744,40.25245,40.25664,40.260605,40.26349,40.266396,40.269028,40.27146,40.273766,40.27527,40.27685,40.277935,40.279457,40.280724,40.28154,40.281425,40.28089,40.28019,40.27917,40.27826,40.27668,40.275234,40.273575,40.272552,40.272255,40.272186,40.27183,40.270466,40.268177,40.26576,40.26454,40.26404,40.2644,40.264732,40.264755,40.26451,40.264133,40.264347,40.264965,40.265404,40.265697,40.266666,40.267933,40.26957,40.27111,40.272522,40.27356,40.27403,40.27467,40.275505,40.276875,40.278023,40.27976,40.281006,40.28329,40.285248,40.28802,40.290012,40.293533,40.296658,40.301014,40.304714,40.309265,40.31319,40.31742,40.32128,40.324898,40.328587,40.33172,40.335026,40.33715,40.34014,40.342575,40.346134,40.348766,40.35204,40.353996,40.35642,40.357857,40.36009,40.36173,40.363285,40.364037,40.364788,40.36514,40.365364,40.365486,40.365295,40.36625,40.36823,40.37121,40.373173,40.376793,40.380207,40.384075,40.386097,40.388508,40.389805,40.391403,40.39229,40.393288,40.39393,40.39515,40.396194,40.39686,40.39718,40.397594,40.39791,40.39823,40.398033,40.397636,40.395977,40.394016,40.391163,40.389145,40.386448,40.384693,40.382477,40.381115,40.379326,40.37808,40.376442,40.375053,40.373283,40.37148,40.36954,40.367455,40.365818,40.363224,40.360603,40.356213,40.352192,40.34724,40.34424,40.34029,40.337795,40.333305,40.329506,40.323296,40.31804,40.31127,40.30598,40.299522,40.293972,40.287834,40.281796,40.27591,40.269386,40.263733,40.257046,40.252094,40.24552,40.24052,40.234474,40.23107,40.22473,40.21929,40.21073,40.203865,40.194305,40.186634,40.176033,40.167007,40.157307,40.148666,40.139317,40.129295,40.120102,40.109066,40.09979,40.088326,40.08013,40.06916,40.061382,40.05083,40.043774,40.034416,40.028393,40.019684,40.013138,40.003574,39.995728,39.98683,39.97979,39.97234,39.965363,39.958214,39.95094,39.945442,39.93912,39.93437,39.927357,39.921585,39.91374,39.908413,39.901234,39.89656,39.889053,39.88308,39.874443,39.867508,39.859013,39.851814,39.84221,39.833027,39.823856,39.815853,39.81013,39.804207,39.799385,39.792088,39.785534,39.776905,39.771072,39.76384,39.75953,39.75289,39.747967,39.74118,39.73633,39.72998,39.725204,39.719364,39.714565,39.709377,39.704754,39.700726,39.696445,39.69266,39.687622,39.683506,39.67738,39.67254,39.66543,39.660213,39.653156,39.648514,39.64151,39.63622,39.628494,39.622433,39.615425,39.610252,39.604008,39.599,39.59491,39.591145,39.587326,39.58239,39.57801,39.57247,39.568584,39.562973,39.558533,39.553547,39.550884,39.54896,39.54901,39.548897,39.54891,39.54828,39.547485,39.546825,39.546436,39.546146,39.545895,39.54564,39.545124,39.544613,39.543385,39.542145,39.539738,39.5376,39.5341,39.531322,39.527534,39.525032,39.521385,39.518734,39.515163,39.512474,39.509007,39.506,39.50204,39.49831
40.28345,40.290863,40.295845,40.30225,40.306595,40.310898,40.31355,40.31658,40.31877,40.320183,40.321606,40.323204,40.325554,40.327717,40.330177,40.33161,40.333252,40.3341,40.335983,40.33774,40.34127,40.34457,40.34901,40.352562,40.357647,40.361893,40.366,40.36905,40.372097,40.374905,40.37752,40.38005,40.381733,40.383503,40.38469,40.386303,40.387634,40.388535,40.388477,40.388042,40.387413,40.386475,40.385605,40.384098,40.38268,40.380997,40.37989,40.379513,40.37939,40.37899,40.37763,40.37538,40.373043,40.371887,40.371487,40.371925,40.37241,40.372585,40.372543,40.3723,40.372784,40.373657,40.37438,40.37483,40.375984,40.377354,40.37909,40.380684,40.38211,40.38318,40.38373,40.38447,40.38537,40.38683,40.38808,40.389896,40.39117,40.393475,40.39543,40.39817,40.40012,40.403526,40.406532,40.410713,40.41425,40.41857,40.42229,40.42635,40.430088,40.433586,40.437195,40.440285,40.443565,40.44568,40.44863,40.450996,40.45453,40.457207,40.460495,40.46242,40.46472,40.46602,40.4682,40.469936,40.4718,40.47288,40.473694,40.47394,40.474136,40.47422,40.473965,40.474834,40.476734,40.4797,40.48168,40.48542,40.48898,40.49307,40.495247,40.49786,40.49929,40.50107,40.502064,40.503147,40.503822,40.505096,40.506195,40.506916,40.507286,40.507736,40.508087,40.508408,40.508266,40.507942,40.506447,40.50463,40.50197,40.500084,40.49756,40.495922,40.49381,40.492474,40.490673,40.489357,40.487633,40.486156,40.484303,40.48244,40.480457,40.478336,40.476643,40.474007,40.4714,40.466976,40.462875,40.45778,40.454643,40.45061,40.44814,40.443478,40.43943,40.433212,40.42816,40.421593,40.41643,40.41008,40.40457,40.398483,40.392406,40.386375,40.379623,40.373756,40.36688,40.361835,40.355194,40.350147,40.3441,40.340733,40.334488,40.329166,40.320786,40.314053,40.3047,40.29721,40.28681,40.277916,40.26835,40.259785,40.250526,40.24051,40.231224,40.220085,40.21081,40.199326,40.19109,40.180046,40.17219,40.161606,40.154575,40.145252,40.139248,40.130615,40.12415,40.11463,40.10679,40.097916,40.090942,40.08365,40.076866,40.069893,40.062786,40.057396,40.05124,40.046677,40.03987,40.03422,40.02649,40.0212,40.014107,40.009514,40.00203,39.99601,39.98717,39.98,39.971226,39.964027,39.955105,39.946682,39.937634,39.929405,39.923546,39.917423,39.91244,39.905003,39.898376,39.88979,39.88408,39.877037,39.87287,39.866447,39.861668,39.85499,39.850147,39.84394,39.83932,39.833626,39.828884,39.82374,39.819027,39.81484,39.81022,39.8061,39.80054,39.795925,39.789375,39.784397,39.777275,39.772144,39.765224,39.760693,39.75376,39.748466,39.740795,39.73481,39.727898,39.72281,39.71666,39.71173,39.70771,39.70402,39.70028,39.69546,39.69119,39.685833,39.682117,39.676754,39.672493,39.66769,39.665104,39.66321,39.663223,39.662945,39.66272,39.661823,39.660793,39.65978,39.659115,39.65865,39.658436,39.65833,39.658134,39.657894,39.657093,39.65628,39.65432,39.65237,39.649128,39.646545,39.642944,39.6405,39.637035,39.634586,39.63132,39.628914,39.625793,39.62312,39.61959,39.616245
40.427265,40.43494,40.440193,40.44692,40.451508,40.456097,40.458996,40.46232,40.464775,40.466423,40.468082,40.469875,40.472443,40.474762,40.477413,40.478985,40.480812,40.48181,40.483868,40.485714,40.489357,40.492737,40.497234,40.500797,40.505867,40.51009,40.51426,40.51743,40.5206,40.52359,40.526394,40.529232,40.531223,40.533356,40.53478,40.53667,40.53817,40.539337,40.539497,40.53928,40.538754,40.5379,40.537045,40.53556,40.534122,40.53233,40.531063,40.530514,40.530235,40.529716,40.528286,40.526024,40.52369,40.52249,40.52212,40.52264,40.523308,40.523636,40.523853,40.523808,40.52467,40.52586,40.526943,40.527615,40.529026,40.530552,40.532448,40.53415,40.535675,40.536827,40.53748,40.53833,40.539314,40.540874,40.5422,40.5441,40.545437,40.54781,40.5498,40.552544,40.55445,40.55778,40.560684,40.564663,40.567955,40.571957,40.57539,40.57918,40.58272,40.586044,40.589527,40.592533,40.595814,40.59801,40.601063,40.603474,40.607094,40.60986,40.61327,40.61528,40.61754,40.618706,40.62079,40.622517,40.624516,40.62582,40.626896,40.627304,40.62751,40.627495,40.627174,40.627937,40.62971,40.63256,40.634502,40.63829,40.641937,40.646168,40.648445,40.651234,40.6528,40.65481,40.65599,40.657192,40.657894,40.65925,40.660435,40.661247,40.66169,40.66221,40.66259,40.662895,40.662754,40.662468,40.66105,40.659306,40.65669,40.654793,40.65229,40.65069,40.64859,40.647236,40.64536,40.643936,40.642097,40.64055,40.638645,40.636803,40.634865,40.63285,40.63128,40.628864,40.626507,40.622337,40.61837,40.613373,40.610283,40.60618,40.603558,40.598717,40.594563,40.58843,40.583603,40.577217,40.57213,40.56581,40.560246,40.554047,40.547775,40.54154,40.534576,40.528572,40.521595,40.516502,40.50984,40.504787,40.49876,40.4954,40.489193,40.483913,40.475685,40.46915,40.46013,40.452946,40.442844,40.434124,40.424747,40.41631,40.4072,40.39725,40.38793,40.376713,40.367424,40.355896,40.347603,40.336395,40.328346,40.317513,40.310307,40.30084,40.29482,40.28624,40.279873,40.270435,40.262653,40.253925,40.247143,40.240116,40.233612,40.226856,40.219963,40.214718,40.20884,40.204617,40.198196,40.192745,40.185226,40.180054,40.173122,40.168644,40.161217,40.155148,40.14601,40.138462,40.12924,40.121883,40.113453,40.105595,40.09638,40.087677,40.08154,40.07515,40.069965,40.062366,40.05568,40.04715,40.04159,40.03473,40.03066,40.024307,40.019547,40.012886,40.00806,40.002052,39.997684,39.992226,39.98762,39.982613,39.977867,39.97347,39.96845,39.96392,39.95792,39.95302,39.946297,39.94134,39.934227,39.929066,39.92208,39.917484,39.910416,39.90502,39.89751,39.891857,39.88534,39.8806,39.87485,39.870228,39.866432,39.8629,39.859283,39.854637,39.85054,39.84547,39.84201,39.837,39.83298,39.828426,39.825954,39.824097,39.824017,39.82335,39.82264,39.821167,39.81968,39.818016,39.81683,39.815914,39.81552,39.815388,39.815445,39.815502,39.815315,39.815136,39.813927,39.81238,39.809822,39.80784,39.804794,39.802513,39.799324,39.79707,39.794144,39.792046,39.789318,39.786987,39.783913,39.781002
40.529236,40.537163,40.542725,40.549866,40.5548,40.559772,40.562965,40.566654,40.569416,40.57129,40.573116,40.575047,40.57773,40.5801,40.58283,40.584457,40.586365,40.587402,40.58949,40.59135,40.595005,40.598385,40.60283,40.60631,40.611267,40.615402,40.61952,40.622692,40.625885,40.628952,40.631847,40.634876,40.637115,40.639584,40.641243,40.643433,40.64511,40.64657,40.646973,40.64695,40.646458,40.64562,40.64473,40.64319,40.641663,40.63973,40.6383,40.63757,40.63713,40.63648,40.63495,40.632645,40.630226,40.628914,40.62849,40.629063,40.629845,40.630253,40.630646,40.630764,40.63189,40.633293,40.634624,40.635452,40.63704,40.638695,40.640713,40.64251,40.64415,40.6454,40.6461,40.646996,40.648033,40.64964,40.650948,40.652878,40.65428,40.65673,40.658768,40.661537,40.663445,40.666756,40.66963,40.673473,40.67659,40.680347,40.68356,40.68714,40.69052,40.693695,40.69708,40.69999,40.70331,40.705643,40.70892,40.711494,40.71531,40.718155,40.72174,40.723907,40.72626,40.727398,40.729404,40.731026,40.732883,40.734173,40.735577,40.73636,40.736614,40.7365,40.736153,40.736843,40.738506,40.74123,40.74309,40.746803,40.750427,40.75463,40.756893,40.75971,40.76134,40.76349,40.76481,40.766094,40.766804,40.76821,40.769455,40.770344,40.770855,40.77144,40.77185,40.772133,40.771942,40.771637,40.770164,40.768375,40.765617,40.763565,40.760906,40.75923,40.757046,40.755642,40.753674,40.752174,40.750263,40.7487,40.746826,40.74508,40.74326,40.741447,40.74012,40.738068,40.736042,40.73228,40.728603,40.723915,40.721027,40.71691,40.714066,40.709137,40.705063,40.69905,40.69431,40.687958,40.682835,40.676437,40.670727,40.66429,40.65781,40.651436,40.64445,40.638504,40.631626,40.626595,40.620007,40.615013,40.609016,40.605656,40.59939,40.594036,40.585854,40.57946,40.570717,40.5638,40.55393,40.54533,40.53608,40.527737,40.51876,40.50891,40.49963,40.488403,40.479076,40.46749,40.459175,40.447823,40.43959,40.428406,40.4209,40.411175,40.4051,40.396503,40.390194,40.38082,40.373135,40.3646,40.35804,40.351254,40.344955,40.338333,40.33157,40.326416,40.320755,40.31682,40.310715,40.305416,40.298054,40.292976,40.286167,40.281757,40.274372,40.268253,40.258877,40.25102,40.24145,40.233875,40.225426,40.217514,40.207882,40.198692,40.192284,40.185722,40.180412,40.172768,40.166077,40.157642,40.152203,40.145462,40.14143,40.135056,40.130215,40.123535,40.11878,40.112984,40.108864,40.10366,40.099236,40.094437,40.089756,40.085255,40.080032,40.075294,40.069218,40.06444,40.057926,40.05314,40.046024,40.040714,40.033447,40.028606,40.021248,40.015717,40.008366,40.003098,39.997036,39.992714,39.98745,39.98319,39.97966,39.976276,39.972755,39.968227,39.964264,39.959408,39.956142,39.95135,39.94746,39.94304,39.94065,39.93878,39.938602,39.937542,39.936375,39.93436,39.93245,39.93022,39.928577,39.92724,39.92657,39.92622,39.926292,39.926506,39.92677,39.927067,39.9265,39.92537,39.923573,39.92231,39.919907,39.917824,39.91485,39.912674,39.90992,39.90797,39.90541,39.903206,39.90031,39.897575
40.667522,40.67566,40.681473,40.688957,40.69421,40.699528,40.70303,40.707104,40.71024,40.712444,40.714592,40.71677,40.719727,40.722298,40.725277,40.7271,40.72926,40.73048,40.732765,40.734722,40.738445,40.741825,40.74624,40.749653,40.754486,40.758526,40.762615,40.765858,40.76916,40.772427,40.775505,40.778847,40.781406,40.784298,40.78626,40.78884,40.790783,40.792675,40.793438,40.79383,40.79357,40.793022,40.792313,40.790993,40.789593,40.787727,40.78628,40.7855,40.784958,40.784206,40.78254,40.780132,40.777542,40.776043,40.775414,40.775883,40.77656,40.776924,40.777325,40.7775,40.77875,40.780293,40.781834,40.782852,40.78466,40.78649,40.788715,40.790695,40.792564,40.79402,40.794872,40.795914,40.797085,40.7988,40.800163,40.802185,40.80368,40.806248,40.80836,40.811214,40.813152,40.816505,40.819378,40.82314,40.826126,40.829723,40.8328,40.836292,40.83965,40.84281,40.846264,40.84924,40.85273,40.85525,40.858753,40.861477,40.865402,40.868267,40.871876,40.87407,40.87637,40.87741,40.879257,40.880745,40.882557,40.883846,40.88514,40.885834,40.88613,40.886127,40.885883,40.886654,40.888325,40.891064,40.89296,40.896736,40.900406,40.904675,40.90699,40.90989,40.91158,40.913887,40.915356,40.916763,40.91753,40.919056,40.92041,40.9214,40.921955,40.92257,40.922894,40.923004,40.92258,40.92212,40.920452,40.918545,40.915585,40.913357,40.910534,40.908794,40.906487,40.904972,40.902836,40.9012,40.899094,40.897396,40.895447,40.893726,40.891975,40.890347,40.88921,40.8875,40.885845,40.882526,40.87914,40.874733,40.87199,40.8679,40.864937,40.860043,40.856125,40.850323,40.84573,40.839546,40.83452,40.82819,40.82245,40.81592,40.80916,40.80235,40.794827,40.788486,40.78124,40.77599,40.76919,40.76407,40.75805,40.75478,40.748672,40.743454,40.735382,40.72902,40.720364,40.713554,40.70392,40.69559,40.68667,40.678593,40.669792,40.660053,40.65087,40.639763,40.63065,40.618973,40.61026,40.59833,40.589695,40.57814,40.570503,40.560875,40.55507,40.546825,40.54076,40.53144,40.523617,40.514988,40.508377,40.501595,40.49537,40.488808,40.482212,40.477257,40.472015,40.46854,40.462997,40.458,40.45116,40.44655,40.44024,40.43608,40.42889,40.422775,40.413387,40.405468,40.395824,40.388214,40.3799,40.372112,40.36241,40.35303,40.34642,40.33962,40.33411,40.32625,40.31944,40.31079,40.305187,40.297997,40.293514,40.28643,40.281044,40.27368,40.26849,40.262188,40.25778,40.252342,40.247814,40.242886,40.238,40.23316,40.227512,40.22245,40.216152,40.21134,40.204838,40.20007,40.19293,40.18756,40.18028,40.175484,40.168274,40.162933,40.156055,40.15131,40.145878,40.14206,40.137356,40.1335,40.13026,40.127064,40.123707,40.119408,40.115673,40.111156,40.10819,40.103737,40.10004,40.09582,40.093533,40.091713,40.091488,40.09009,40.088463,40.08587,40.083454,40.08051,40.078255,40.07638,40.07542,40.07488,40.075005,40.075382,40.076065,40.07681,40.076736,40.0758,40.074425,40.073605,40.07162,40.069683,40.06693,40.064903,40.06253,40.060978,40.058918,40.05714,40.054737,40.052425
40.76201,40.77019,40.77606,40.783646,40.788998,40.794453,40.798103,40.802372,40.80575,40.80821,40.81064,40.813057,40.816284,40.819077,40.82234,40.824368,40.826817,40.828236,40.83076,40.83284,40.83665,40.840023,40.844437,40.847824,40.852596,40.85658,40.86067,40.86399,40.867428,40.87088,40.874123,40.8777,40.880463,40.88362,40.885777,40.88862,40.89075,40.892975,40.89401,40.894802,40.894825,40.894676,40.894245,40.89329,40.892147,40.890522,40.88919,40.88852,40.888,40.88723,40.88548,40.88297,40.88021,40.87856,40.87769,40.877953,40.878376,40.878582,40.878815,40.8789,40.880062,40.881577,40.88316,40.884274,40.88621,40.88817,40.890545,40.892696,40.894764,40.89643,40.897446,40.89866,40.899944,40.9018,40.903233,40.90536,40.906914,40.90957,40.911743,40.914684,40.916683,40.9201,40.923008,40.92679,40.92978,40.93338,40.936497,40.940067,40.943542,40.94684,40.950466,40.953632,40.95731,40.95996,40.96357,40.966335,40.97023,40.973038,40.97653,40.978607,40.980762,40.98171,40.983402,40.984787,40.986618,40.987896,40.988735,40.988987,40.9893,40.989548,40.98948,40.99043,40.992214,40.9951,40.997116,41.00103,41.004776,41.009155,41.011555,41.014526,41.01625,41.01863,41.020187,41.021687,41.02253,41.02417,41.02561,41.026665,41.027225,41.027805,41.027992,41.027893,41.02718,41.026524,41.024635,41.022602,41.0195,41.01717,41.01425,41.0125,41.0101,41.008476,41.0062,41.00445,41.00216,41.000294,40.998215,40.99645,40.994686,40.993107,40.99202,40.990456,40.989,40.98591,40.982662,40.97836,40.97563,40.971584,40.968674,40.96392,40.96015,40.954514,40.95005,40.944054,40.939167,40.933,40.927322,40.92086,40.913914,40.90663,40.898415,40.8915,40.883663,40.878056,40.870903,40.865543,40.859444,40.856293,40.85043,40.845444,40.837467,40.831005,40.822205,40.815292,40.80575,40.797665,40.78906,40.78125,40.772583,40.762917,40.753845,40.7429,40.734097,40.72234,40.713108,40.700546,40.691544,40.679813,40.672276,40.663006,40.65761,40.649857,40.644066,40.63475,40.626656,40.617725,40.610844,40.603844,40.597527,40.590923,40.58445,40.57968,40.574814,40.57171,40.566647,40.561947,40.55569,40.551624,40.54592,40.542065,40.535137,40.5291,40.519943,40.51226,40.502842,40.495396,40.487247,40.479637,40.47024,40.461056,40.45444,40.447464,40.441803,40.43369,40.426704,40.417664,40.411697,40.403748,40.398567,40.390507,40.384426,40.376114,40.37024,40.363045,40.358013,40.352016,40.34718,40.341877,40.336643,40.331417,40.32539,40.32006,40.313534,40.308586,40.301933,40.297043,40.289883,40.284584,40.277542,40.273014,40.266277,40.261337,40.254967,40.250584,40.245594,40.242077,40.23771,40.234066,40.230976,40.227905,40.224697,40.220604,40.217056,40.212814,40.210083,40.205887,40.202343,40.19827,40.196037,40.194298,40.194107,40.192608,40.190784,40.187904,40.185204,40.181828,40.1792,40.17702,40.175903,40.175274,40.17543,40.17587,40.17668,40.17759,40.177563,40.176506,40.174984,40.17409,40.17207,40.17014,40.167484,40.165596,40.16358,40.162426,40.16088,40.15955,40.15764,40.155743
40.899258,40.90745,40.91339,40.921127,40.92664,40.93231,40.936203,40.940777,40.944527,40.947388,40.95028,40.953064,40.95673,40.959858,40.96353,40.96583,40.96864,40.9703,40.973106,40.97534,40.979282,40.982655,40.987103,40.990498,40.995174,40.999043,41.00307,41.00642,41.00991,41.01348,41.01685,41.02063,41.02359,41.027023,41.029377,41.032513,41.034866,41.03744,41.038754,41.039986,41.040356,41.040672,41.040577,41.040096,41.039295,41.037968,41.036774,41.03625,41.035797,41.03506,41.033253,41.030655,41.027733,41.025986,41.024883,41.024883,41.02496,41.024952,41.024883,41.02479,41.025726,41.027134,41.02865,41.029793,41.031765,41.0338,41.036304,41.038628,41.040905,41.042816,41.044067,41.045532,41.04702,41.04907,41.05063,41.05286,41.05445,41.057167,41.059383,41.062393,41.064438,41.067932,41.0709,41.074768,41.077827,41.081482,41.084644,41.08832,41.09191,41.09528,41.098976,41.102238,41.10601,41.108723,41.112347,41.115086,41.11894,41.121723,41.125126,41.12712,41.129246,41.13021,41.131638,41.132645,41.13408,41.13507,41.135582,41.135704,41.13612,41.136642,41.136795,41.137947,41.139797,41.14277,41.144886,41.14891,41.15271,41.157192,41.15968,41.162777,41.164597,41.167156,41.168873,41.170567,41.171555,41.173374,41.17494,41.176086,41.17666,41.17721,41.177254,41.17694,41.175983,41.17518,41.173176,41.171097,41.16797,41.165627,41.162712,41.160984,41.158558,41.156883,41.154503,41.152637,41.15017,41.14816,41.145973,41.144188,41.142433,41.140926,41.139904,41.138493,41.137238,41.134357,41.13122,41.126934,41.12409,41.12002,41.1172,41.112633,41.109035,41.10362,41.099277,41.09329,41.08827,41.08192,41.07602,41.06932,41.062077,41.054447,41.045795,41.038513,41.030228,41.024254,41.016674,41.011024,41.00459,41.001236,40.99519,40.990158,40.982105,40.97559,40.966663,40.95964,40.95005,40.942017,40.933506,40.92589,40.91754,40.908176,40.899292,40.888298,40.879234,40.867115,40.85767,40.844906,40.835796,40.82404,40.81655,40.80749,40.802338,40.79487,40.789246,40.779972,40.771786,40.762764,40.755825,40.74881,40.742577,40.736095,40.729885,40.72539,40.72102,40.71838,40.71402,40.70986,40.704395,40.700893,40.696144,40.693043,40.68704,40.68156,40.67309,40.665806,40.656746,40.649403,40.641193,40.633564,40.624554,40.61574,40.60917,40.601967,40.596027,40.587482,40.58021,40.570557,40.564026,40.554966,40.548786,40.539448,40.532562,40.52309,40.516415,40.508526,40.503254,40.496964,40.491898,40.48622,40.480495,40.474697,40.46805,40.46222,40.455265,40.4501,40.443363,40.438515,40.431522,40.42639,40.419567,40.41516,40.408817,40.404324,40.398525,40.394573,40.39007,40.38689,40.38291,40.379578,40.37672,40.373882,40.370926,40.367184,40.363937,40.360104,40.35771,40.353855,40.35046,40.346535,40.34437,40.342674,40.34246,40.34085,40.338867,40.33566,40.332714,40.329453,40.327095,40.325016,40.323757,40.322712,40.32247,40.322823,40.323685,40.32471,40.3247,40.323524,40.32184,40.320835,40.318687,40.316696,40.31412,40.31244,40.310802,40.31005,40.309017,40.30814,40.30676,40.3053
41.008114,41.016262,41.022255,41.030075,41.035717,41.04157,41.045677,41.050514,41.05459,41.057816,41.061127,41.06424,41.068283,41.0717,41.075714,41.078236,41.081303,41.08313,41.086147,41.08852,41.092567,41.095963,41.100464,41.103886,41.108498,41.112255,41.116207,41.11952,41.12297,41.126553,41.12993,41.133778,41.13682,41.140396,41.142864,41.14618,41.148674,41.15147,41.15294,41.154465,41.155083,41.155724,41.155865,41.155743,41.155228,41.15414,41.153076,41.152695,41.152332,41.15167,41.149864,41.147205,41.1442,41.14242,41.141163,41.140945,41.14072,41.14051,41.140167,41.13988,41.140564,41.14181,41.14319,41.144287,41.146206,41.148235,41.15079,41.153233,41.15563,41.15772,41.159157,41.16083,41.16248,41.164696,41.166336,41.168633,41.170223,41.172947,41.175175,41.178196,41.180267,41.183804,41.18682,41.190784,41.193924,41.197636,41.200832,41.204582,41.20823,41.21159,41.215252,41.218506,41.22226,41.22494,41.228504,41.231174,41.23498,41.237762,41.241146,41.243103,41.24529,41.246346,41.24754,41.24814,41.24906,41.24971,41.25013,41.2504,41.250946,41.25166,41.252,41.253284,41.255154,41.258133,41.260296,41.264355,41.26815,41.272663,41.275185,41.27837,41.280273,41.282993,41.284836,41.2867,41.287815,41.289783,41.29143,41.29265,41.293205,41.293724,41.293648,41.2932,41.2921,41.291225,41.289207,41.28717,41.28411,41.28185,41.27903,41.27735,41.274986,41.27334,41.270954,41.26906,41.266533,41.264484,41.262276,41.260513,41.258804,41.25735,41.25638,41.25505,41.253906,41.251137,41.248043,41.243694,41.240707,41.236614,41.233902,41.229473,41.225986,41.2207,41.216408,41.21028,41.20499,41.198307,41.1921,41.185066,41.177612,41.16992,41.161278,41.15399,41.145588,41.139427,41.131565,41.125732,41.11892,41.11521,41.108753,41.103485,41.09526,41.08875,41.07975,41.07265,41.06291,41.05474,41.0461,41.038532,41.030483,41.021458,41.012768,41.00165,40.992092,40.97965,40.970364,40.957855,40.948906,40.93726,40.92977,40.920673,40.915466,40.907925,40.902245,40.89295,40.884777,40.8758,40.868946,40.86204,40.85597,40.849667,40.84371,40.839424,40.8354,40.83308,40.829247,40.825558,40.82066,40.817474,40.81345,40.811047,40.80597,40.8011,40.79333,40.786415,40.777657,40.770325,40.76194,40.754177,40.7455,40.737076,40.730625,40.723316,40.71717,40.7083,40.700848,40.690735,40.683746,40.673805,40.666855,40.65662,40.649223,40.638992,40.631798,40.623604,40.618343,40.611988,40.60682,40.60093,40.594864,40.588654,40.581543,40.575333,40.56808,40.56277,40.55607,40.551376,40.544636,40.5397,40.53301,40.528603,40.522484,40.51828,40.512833,40.509117,40.504883,40.501892,40.498154,40.495026,40.492355,40.48974,40.487015,40.48358,40.480602,40.477093,40.474964,40.471333,40.468002,40.46416,40.462036,40.46035,40.460114,40.458473,40.456467,40.45313,40.450134,40.447323,40.445538,40.44381,40.442513,40.44104,40.44029,40.4405,40.44129,40.442272,40.44215,40.44086,40.438972,40.43781,40.435463,40.433357,40.430798,40.42927,40.427853,40.4273,40.42653,40.425877,40.424774,40.423557
41.142162,41.15035,41.15644,41.16445,41.17032,41.1765,41.180977,41.186264,41.190834,41.194557,41.198387,41.20191,41.20638,41.210083,41.21445,41.217216,41.22062,41.22268,41.225986,41.228535,41.232742,41.236187,41.240734,41.244156,41.248688,41.252335,41.256172,41.25942,41.262856,41.26646,41.269844,41.273773,41.27692,41.280712,41.28339,41.287018,41.289726,41.292885,41.29464,41.296566,41.297466,41.298466,41.298847,41.299084,41.298836,41.29804,41.297146,41.296936,41.29666,41.296066,41.29422,41.29145,41.28822,41.286266,41.28469,41.2842,41.283592,41.283123,41.282513,41.282112,41.282608,41.28372,41.28503,41.28618,41.288147,41.29026,41.292942,41.295555,41.298183,41.300518,41.302143,41.304012,41.305836,41.308186,41.30987,41.312206,41.313828,41.316586,41.31884,41.321888,41.32398,41.327515,41.33051,41.334415,41.337475,41.341064,41.34413,41.347775,41.35136,41.35467,41.35832,41.361576,41.365356,41.368073,41.371674,41.374374,41.378212,41.381016,41.38441,41.38637,41.388565,41.389618,41.39056,41.390842,41.39151,41.392086,41.392494,41.39288,41.393585,41.39451,41.395058,41.396515,41.398438,41.401432,41.403614,41.407627,41.411335,41.415756,41.418247,41.42141,41.423325,41.426098,41.42803,41.429985,41.43118,41.43329,41.435047,41.436302,41.4368,41.437233,41.436954,41.43625,41.43483,41.433712,41.4315,41.42941,41.426342,41.42409,41.421345,41.419754,41.417477,41.415874,41.41357,41.411736,41.409256,41.40725,41.40512,41.40347,41.40189,41.400608,41.399742,41.39862,41.39773,41.39526,41.392372,41.38822,41.38532,41.381348,41.37874,41.374393,41.37092,41.365654,41.361362,41.35515,41.349724,41.34289,41.33655,41.329372,41.321846,41.314213,41.305683,41.298492,41.290127,41.283947,41.275986,41.27005,41.26301,41.259075,41.252346,41.246937,41.238605,41.232086,41.22307,41.215942,41.206146,41.19794,41.189278,41.1818,41.173977,41.16526,41.15685,41.145958,41.13645,41.12414,41.11507,41.10278,41.093937,41.08229,41.074688,41.065376,41.059956,41.05208,41.046127,41.036457,41.028023,41.01883,41.011898,41.004925,40.99891,40.992756,40.98702,40.98284,40.97911,40.977158,40.97386,40.970577,40.966156,40.963253,40.959614,40.95748,40.952595,40.947746,40.940113,40.93331,40.924603,40.91727,40.908905,40.901268,40.89292,40.884853,40.878582,40.87136,40.865227,40.856384,40.84905,40.838837,40.831615,40.821095,40.81356,40.80266,40.794907,40.784172,40.77661,40.767685,40.76176,40.75485,40.74943,40.743454,40.737408,40.731052,40.723846,40.71768,40.71057,40.705387,40.698914,40.69444,40.687943,40.683125,40.676647,40.672417,40.666656,40.662785,40.657673,40.654156,40.650223,40.6475,40.64405,40.64117,40.638725,40.636345,40.633865,40.630745,40.628033,40.624844,40.622948,40.61951,40.61622,40.612446,40.610394,40.6088,40.60862,40.606995,40.60494,40.601578,40.598537,40.595535,40.593544,40.59175,40.590424,40.5888,40.587948,40.588264,40.589104,40.58998,40.589657,40.58821,40.58612,40.584827,40.582317,40.58011,40.577576,40.576187,40.574963,40.574596,40.57405,40.573586,40.572685,40.571632
41.2566,41.26483,41.270996,41.27915,41.2852,41.291653,41.296448,41.302124,41.30714,41.311314,41.315617,41.319508,41.324345,41.32829,41.332962,41.33597,41.339672,41.341923,41.345478,41.34819,41.35256,41.356068,41.36068,41.36411,41.368618,41.372208,41.375988,41.379185,41.382607,41.38621,41.389565,41.393497,41.39669,41.400623,41.403458,41.40733,41.41019,41.41362,41.4156,41.417828,41.41893,41.42018,41.420727,41.42123,41.421207,41.420685,41.42,41.419964,41.41977,41.419254,41.41738,41.414505,41.41107,41.408924,41.40706,41.40635,41.40545,41.404762,41.40396,41.40351,41.403873,41.404873,41.40615,41.40735,41.409378,41.41157,41.414364,41.417126,41.41995,41.422478,41.42423,41.426216,41.42813,41.430534,41.43221,41.43454,41.436188,41.438965,41.441216,41.444283,41.44638,41.449905,41.452854,41.456665,41.459614,41.463047,41.46598,41.46949,41.472996,41.476273,41.47994,41.48321,41.487026,41.489773,41.493423,41.49615,41.500015,41.50281,41.506195,41.508133,41.510326,41.51138,41.512215,41.512367,41.51304,41.51371,41.51419,41.51466,41.51548,41.516533,41.517223,41.51879,41.52078,41.523808,41.52599,41.529934,41.53354,41.537865,41.540318,41.543423,41.545307,41.548096,41.55006,41.552025,41.553207,41.55537,41.557175,41.558388,41.558746,41.55904,41.55853,41.557575,41.55584,41.554466,41.55205,41.54991,41.54685,41.54462,41.541958,41.54046,41.53828,41.536736,41.534557,41.532852,41.530502,41.52859,41.526634,41.52518,41.523815,41.522762,41.52207,41.521156,41.520466,41.518238,41.515526,41.511616,41.508892,41.505123,41.502605,41.49835,41.4949,41.48966,41.485363,41.47915,41.473724,41.466908,41.460598,41.45344,41.44599,41.4385,41.43016,41.42312,41.4149,41.408817,41.400898,41.39496,41.387863,41.383865,41.377094,41.371674,41.363377,41.35691,41.347965,41.340893,41.331097,41.32286,41.31418,41.30673,41.298985,41.29048,41.282352,41.271885,41.26282,41.250973,41.242195,41.230133,41.221394,41.209663,41.201862,41.19213,41.186317,41.177876,41.171486,41.161255,41.152435,41.142887,41.1358,41.12871,41.12274,41.116756,41.111225,41.107124,41.10352,41.10176,41.09866,41.09545,41.09111,41.08825,41.084515,41.08222,41.07704,41.07196,41.06428,41.057613,41.04888,41.041508,41.03327,41.02586,41.01779,41.01001,41.00393,40.996887,40.990887,40.982296,40.975266,40.965244,40.958004,40.947323,40.93959,40.928577,40.92083,40.910114,40.9025,40.89298,40.88631,40.878807,40.87315,40.867123,40.861195,40.854843,40.847748,40.8418,40.83504,40.830154,40.823986,40.819653,40.8133,40.808548,40.802296,40.79832,40.792828,40.78909,40.784073,40.78057,40.77675,40.77417,40.770885,40.76818,40.765934,40.763794,40.761566,40.758743,40.756275,40.75338,40.75169,40.74841,40.74511,40.741375,40.739376,40.7379,40.737823,40.736267,40.73422,40.730995,40.728027,40.7246,40.72207,40.719986,40.71862,40.7171,40.71643,40.71688,40.717693,40.718372,40.717762,40.71613,40.713825,40.712402,40.709755,40.70747,40.704937,40.703632,40.702507,40.702225,40.701786,40.701405,40.700546,40.6995
