4.345404,4.1786203,4.603795,5.9292965,7.4855356,8.304284,8.867194,9.045422,9.136253,9.162353,9.128918,9.061214,8.944124,8.84309,8.709665,8.616647,8.515218,8.448067,8.339789,8.250983,8.18344,8.153233,8.135459,8.143462,8.158508,8.196357,8.23778,8.284388,8.312093,8.325674,8.318457,8.303264,8.288742,8.271717,8.261546,8.2511635,8.244858,8.234058,8.216429,8.187386,8.13115,8.041065,7.9222565,7.8047967,7.703959,7.654172,7.639459,7.645764,7.705689,7.7947383,7.8344474,7.811264,7.6131973,7.3460093,6.751127,6.123522,5.138837,4.388993,4.0579486,4.1451955,4.1020107,4.0828595,4.069213,4.0649796
4.3746715,4.6654515,5.748646,7.6769037,9.615577,10.435321,10.817584,10.816684,10.758194,10.758482,10.74879,10.7376375,10.688972,10.630871,10.538717,10.460051,10.366937,10.293447,10.176765,10.075525,9.992846,9.946894,9.914746,9.91076,9.918468,9.951056,9.989276,10.034452,10.062004,10.079675,10.078146,10.072127,10.064862,10.055254,10.048551,10.042635,10.040548,10.039364,10.037042,10.036119,10.012989,9.953311,9.866673,9.781091,9.713769,9.688327,9.696894,9.717076,9.788655,9.88317,9.921054,9.891451,9.669588,9.372589,8.706994,7.9604797,6.50636,5.210555,4.382823,4.2112308,4.067121,4.092436,4.0736303,4.0701947
4.4168887,5.5447206,7.2868695,8.997856,10.3603115,10.780162,10.863656,10.823692,10.768364,10.775251,10.771931,10.760517,10.730953,10.700193,10.65762,10.624963,10.583043,10.550048,10.504434,10.466931,10.434137,10.412553,10.393696,10.384359,10.382125,10.389438,10.401471,10.411845,10.414123,10.410233,10.403138,10.391993,10.383411,10.370131,10.359823,10.346992,10.338303,10.328861,10.32118,10.311392,10.294888,10.267228,10.230234,10.195054,10.159547,10.136048,10.115159,10.100966,10.103206,10.127115,10.117466,10.085829,9.954281,9.793365,9.505213,9.120226,7.774233,6.262052,4.935166,4.2768764,4.0010033,4.101865,4.0796604,4.07712
4.4695826,6.397391,8.723669,10.092521,10.853598,11.016234,10.954736,10.916717,10.872972,10.866723,10.8537035,10.84088,10.826317,10.8185835,10.809568,10.8046465,10.79638,10.790752,10.789837,10.791018,10.787644,10.780535,10.771966,10.761437,10.753272,10.743559,10.736931,10.724755,10.712955,10.697098,10.6867,10.672488,10.663077,10.647823,10.635713,10.619231,10.60706,10.59355,10.583441,10.56929,10.556565,10.546196,10.53581,10.52767,10.509066,10.486698,10.448974,10.415863,10.373275,10.346798,10.307679,10.281847,10.211515,10.135956,10.070272,9.910813,8.81383,7.3451886,5.5706124,4.354144,3.9355066,4.1129613,4.088141,4.0882983
4.50331,6.7615566,9.269689,10.330783,10.757736,10.921036,10.9327755,10.938887,10.914822,10.887042,10.855078,10.838306,10.824318,10.821693,10.812733,10.804427,10.796552,10.792867,10.790714,10.789118,10.782685,10.774627,10.76904,10.7621355,10.754979,10.744564,10.735719,10.723495,10.71472,10.701292,10.691013,10.676702,10.666987,10.65192,10.640343,10.62474,10.6133995,10.601103,10.591632,10.577982,10.563006,10.546568,10.5272255,10.510068,10.484935,10.461252,10.425484,10.3962755,10.35339,10.320607,10.283076,10.266448,10.201199,10.124365,10.033663,9.869545,9.041198,7.8509483,5.93263,4.3985467,3.906904,4.119708,4.0944657,4.0973797
4.5414414,7.1159077,9.821909,10.656674,10.805222,10.942192,10.969082,10.971979,10.949057,10.924286,10.897965,10.886113,10.8765335,10.875251,10.867125,10.858645,10.852659,10.851507,10.851817,10.851732,10.845908,10.838255,10.834473,10.828777,10.821446,10.809093,10.797462,10.782898,10.773833,10.760235,10.749828,10.735542,10.725995,10.711043,10.699467,10.683712,10.67212,10.659423,10.64963,10.636166,10.620988,10.603147,10.581597,10.562322,10.535374,10.5107765,10.475003,10.446762,10.404244,10.371501,10.327524,10.300549,10.241197,10.182611,10.104917,9.959206,9.302909,8.267924,6.216408,4.441999,3.8925188,4.1322937,4.103951,4.107166
4.561645,7.2314587,10.001058,10.78147,10.856012,10.985322,11.000419,10.973405,10.940359,10.934921,10.928425,10.92448,10.917526,10.911766,10.900502,10.890717,10.8831415,10.881149,10.880726,10.880462,10.874731,10.867144,10.862822,10.856622,10.8492985,10.837156,10.825816,10.81108,10.801322,10.787286,10.777002,10.763089,10.753962,10.739198,10.727481,10.711364,10.699279,10.685689,10.675151,10.66147,10.646337,10.628181,10.606192,10.586589,10.559186,10.533714,10.498263,10.4707775,10.434151,10.41141,10.362687,10.317452,10.255814,10.210827,10.142273,10.000146,9.362637,8.341338,6.267824,4.459866,3.9014864,4.143835,4.112325,4.113818
4.577459,7.382548,10.242323,10.943474,10.907779,11.013484,11.0217,10.9910965,10.960947,10.962079,10.960585,10.956892,10.9496355,10.942949,10.929829,10.918482,10.9112425,10.91122,10.913081,10.915319,10.912918,10.908032,10.90488,10.899287,10.892809,10.881634,10.871099,10.856895,10.847083,10.833112,10.823038,10.809292,10.800189,10.785504,10.773846,10.75765,10.745325,10.731413,10.720023,10.703944,10.68595,10.665645,10.641733,10.620313,10.590934,10.563366,10.527384,10.500924,10.468136,10.450051,10.404394,10.358485,10.298806,10.257275,10.199446,10.071689,9.479326,8.48975,6.365384,4.4806056,3.90428,4.1570144,4.1245923,4.1256523
4.5826864,7.456672,10.362714,11.02721,10.93468,11.017694,11.021597,11.00511,10.985657,10.984297,10.978251,10.970792,10.961805,10.956321,10.943716,10.932541,10.926633,10.928472,10.932601,10.937236,10.938256,10.936264,10.934412,10.929664,10.924275,10.914559,10.905364,10.892367,10.88298,10.869414,10.85957,10.845892,10.836647,10.82207,10.810665,10.794729,10.782523,10.768916,10.757131,10.738617,10.717501,10.69508,10.669397,10.64625,10.615058,10.58581,10.549005,10.522777,10.49136,10.474123,10.435552,10.399321,10.342114,10.29519,10.244005,10.129447,9.55756,8.57698,6.421066,4.494415,3.9085653,4.1681333,4.136381,4.137588
4.5805397,7.5131373,10.459553,11.094322,10.952708,11.011614,11.010679,11.011553,11.005166,11.0006075,10.991552,10.983366,10.9752245,10.971762,10.964526,10.958756,10.955826,10.957567,10.962428,10.967666,10.9696245,10.968479,10.967141,10.962824,10.957885,10.948652,10.939802,10.927104,10.917833,10.90438,10.894588,10.881004,10.871838,10.857571,10.846527,10.831008,10.819105,10.806053,10.794624,10.775966,10.754414,10.731747,10.705856,10.682521,10.651134,10.62204,10.58429,10.556089,10.522943,10.5049515,10.468964,10.437296,10.382051,10.333858,10.291832,10.189908,9.629277,8.64853,6.4674006,4.5107374,3.9167633,4.1800985,4.1481447,4.1491017
4.602529,7.55577,10.507093,11.124411,10.958111,11.002209,11.0,11.01552,11.019267,11.010956,11.0003195,10.994024,10.988923,10.988084,10.9868355,10.986511,10.9861,10.986883,10.9914665,10.996262,10.997712,10.996282,10.995067,10.991079,10.986358,10.977323,10.968537,10.955997,10.946936,10.933665,10.923898,10.910491,10.901542,10.887771,10.877227,10.862352,10.850985,10.8388,10.828252,10.810742,10.790201,10.76833,10.743065,10.720288,10.689502,10.661353,10.623095,10.592811,10.557511,10.538481,10.503648,10.474689,10.421471,10.373769,10.337912,10.2448015,9.705876,8.738709,6.5309043,4.534624,3.9282875,4.1937413,4.1607037,4.1614027
4.654377,7.617078,10.555079,11.149939,10.963106,11.00435,11.004894,11.023704,11.029303,11.019221,11.010052,11.007788,11.0070095,11.00839,11.008875,11.008684,11.00837,11.008897,11.013302,11.0179615,11.019257,11.01786,11.01691,11.013378,11.00903,11.000474,10.9920635,10.98003,10.971375,10.958475,10.948811,10.935633,10.9268875,10.913596,10.903529,10.889268,10.87839,10.866966,10.857089,10.840266,10.8202,10.798727,10.773622,10.750753,10.719941,10.692014,10.654055,10.623713,10.589368,10.571775,10.53918,10.511836,10.461389,10.416054,10.382581,10.294283,9.798051,8.868545,6.6237445,4.5629435,3.9380944,4.207817,4.1734624,4.174121
4.7531643,7.6998854,10.592852,11.164764,10.96727,11.012942,11.018883,11.035464,11.039876,11.030813,11.025319,11.027253,11.0304985,11.033413,11.034226,11.032881,11.032035,11.032467,11.036689,11.041245,11.042352,11.041005,11.040433,11.03755,11.033727,11.025863,11.017997,11.006731,10.998701,10.98642,10.976988,10.964241,10.955857,10.943251,10.933803,10.920403,10.9102335,10.899824,10.890814,10.874907,10.855499,10.834536,10.809811,10.787354,10.756853,10.728854,10.691337,10.661772,10.628975,10.612746,10.582073,10.556015,10.507677,10.464111,10.428532,10.343676,9.927948,9.076277,6.7773614,4.6093225,3.952744,4.227177,4.1895037,4.189994
4.8489337,7.7721553,10.61794,11.172992,10.971077,11.020363,11.030257,11.044799,11.049105,11.042707,11.04029,11.043838,11.048347,11.051393,11.052467,11.051199,11.050361,11.050711,11.054924,11.059507,11.060567,11.059342,11.05915,11.056857,11.053516,11.046248,11.038825,11.028189,11.020682,11.008955,10.999773,10.987476,10.979472,10.9675045,10.958599,10.945992,10.936483,10.926978,10.918711,10.903574,10.884729,10.864111,10.839962,10.818754,10.789164,10.760878,10.723317,10.694373,10.662229,10.646126,10.616325,10.591397,10.543813,10.50034,10.460106,10.377716,10.051223,9.287096,6.928432,4.643065,3.9579074,4.243848,4.203285,4.2026157
4.9741216,7.85344,10.630884,11.173331,10.977299,11.033028,11.04765,11.058858,11.063348,11.06209,11.063926,11.068125,11.073483,11.076898,11.078574,11.077707,11.077262,11.077789,11.08219,11.0868635,11.087937,11.086881,11.08715,11.085558,11.082783,11.076254,11.069414,11.059607,11.052774,11.041794,11.032982,11.021289,11.013752,11.002535,10.994239,10.982581,10.973898,10.96552,10.958199,10.944063,10.92598,10.906051,10.882443,10.861742,10.832441,10.804078,10.766595,10.738213,10.705625,10.687967,10.658192,10.635104,10.585927,10.53879,10.494268,10.417289,10.172525,9.4913025,7.105286,4.734226,4.002613,4.267362,4.2183323,4.2195654
5.063013,7.903827,10.629059,11.167661,10.9822445,11.043626,11.061673,11.070519,11.075474,11.078557,11.083474,11.0874605,11.093366,11.097572,11.100074,11.099645,11.099757,11.100608,11.105255,11.109995,11.111096,11.110131,11.110669,11.109493,11.107054,11.101,11.094567,11.085342,11.078978,11.068529,11.059997,11.048723,11.041487,11.030728,11.0228,11.011762,11.003649,10.996065,10.989433,10.9760475,10.958557,10.939384,10.915936,10.894385,10.864341,10.836282,10.799076,10.77076,10.737001,10.717318,10.687078,10.665708,10.613195,10.560126,10.51496,10.444524,10.225012,9.572042,7.2110634,4.8398895,4.0670896,4.2845097,4.2255354,4.2314363
5.1576753,7.9510984,10.617609,11.159197,10.992397,11.059513,11.079563,11.085164,11.091095,11.100444,11.109728,11.1133,11.119786,11.1249485,11.128474,11.128622,11.129495,11.130831,11.135886,11.140811,11.142058,11.141337,11.142357,11.14185,11.139934,11.134601,11.128791,11.120421,11.114714,11.104998,11.096839,11.086108,11.079248,11.069031,11.061501,11.05113,11.043622,11.036863,11.030934,11.018323,11.001428,10.982925,10.9596405,10.937483,10.906845,10.878921,10.841899,10.814087,10.778215,10.754369,10.722408,10.703126,10.64891,10.591854,10.54604,10.480842,10.2879,9.666254,7.336016,4.968006,4.149635,4.313004,4.242263,4.2523904
5.20541,7.9697046,10.603872,11.152773,11.001323,11.0710125,11.090551,11.093685,11.100482,11.114569,11.127151,11.130412,11.137207,11.142911,11.147048,11.147561,11.148934,11.150614,11.155987,11.161097,11.162519,11.162052,11.163494,11.163543,11.162046,11.157275,11.151953,11.144228,11.138998,11.129796,11.121887,11.111511,11.104897,11.094996,11.087673,11.077642,11.070429,11.064054,11.058438,11.046176,11.029525,11.011197,10.987998,10.965929,10.93527,10.907196,10.87015,10.843029,10.80539,10.777704,10.743819,10.725817,10.672694,10.616122,10.569842,10.505362,10.3274975,9.724492,7.409426,5.04124,4.19978,4.3360505,4.258834,4.270109
5.2386146,7.9800167,10.593106,11.155223,11.021329,11.091451,11.109435,11.113027,11.12154,11.137821,11.151954,11.155122,11.162335,11.168623,11.17348,11.174488,11.176546,11.178736,11.184626,11.190082,11.191832,11.19173,11.193683,11.194351,11.193323,11.189166,11.184374,11.177357,11.172657,11.164061,11.156487,11.146556,11.140229,11.130698,11.1236105,11.113988,11.107132,11.101209,11.095966,11.084163,11.067879,11.049867,11.026852,11.00489,10.974182,10.945937,10.908825,10.882473,10.842576,10.810164,10.773597,10.756652,10.705401,10.650625,10.603882,10.540095,10.386923,9.812882,7.5114017,5.1344414,4.264668,4.370567,4.285098,4.2964435
5.235558,7.9742074,10.591001,11.165011,11.040814,11.108918,11.12507,11.131687,11.141752,11.156486,11.169555,11.1728735,11.180339,11.18689,11.192132,11.193467,11.195989,11.198554,11.20486,11.210623,11.2126665,11.2128315,11.215088,11.216081,11.21529,11.211435,11.2069025,11.200235,11.195798,11.187534,11.180172,11.1705065,11.164339,11.155007,11.148042,11.138645,11.1319895,11.126304,11.121263,11.109739,11.093714,11.075946,11.053098,11.031239,11.000508,10.972154,10.93496,10.909014,10.867739,10.832563,10.794098,10.777234,10.727638,10.675184,10.628248,10.564443,10.430262,9.877774,7.5803537,5.1918554,4.3060255,4.3968306,4.306391,4.316637
5.2261486,7.96269,10.588094,11.177323,11.065357,11.132103,11.146304,11.155517,11.167112,11.18089,11.193189,11.196447,11.204,11.210762,11.216392,11.218116,11.221195,11.224234,11.231042,11.237171,11.239582,11.240075,11.2427025,11.244051,11.243486,11.239898,11.235592,11.229233,11.225032,11.217045,11.209839,11.200407,11.19441,11.185331,11.17856,11.169469,11.163079,11.157737,11.152995,11.141853,11.126146,11.108639,11.08595,11.064211,11.033457,11.004945,10.967621,10.941851,10.900073,10.8639965,10.823686,10.804954,10.756192,10.706669,10.659122,10.594799,10.482551,9.955848,7.6663494,5.267333,4.3620577,4.433564,4.3380346,4.3482
5.2101355,7.9487348,10.586868,11.1871195,11.082918,11.149129,11.162148,11.17284,11.18528,11.198507,11.210234,11.213278,11.2206545,11.227396,11.233114,11.235018,11.238387,11.241706,11.248809,11.255163,11.257812,11.258519,11.261373,11.262902,11.262414,11.258881,11.25463,11.248351,11.244218,11.2363,11.2291155,11.219782,11.213894,11.205014,11.198424,11.189577,11.183383,11.178308,11.173798,11.162939,11.147455,11.13011,11.107521,11.085889,11.055159,11.026563,10.989153,10.963245,10.922049,10.887302,10.846157,10.82468,10.775711,10.728408,10.680168,10.614942,10.516008,10.005876,7.7242103,5.321645,4.4046526,4.463538,4.3654847,4.3764286
5.1915264,7.9318585,10.584944,11.197408,11.101778,11.167345,11.1792755,11.192077,11.205811,11.218432,11.229438,11.232124,11.239121,11.245688,11.251224,11.253074,11.256497,11.259969,11.267235,11.273756,11.276594,11.277525,11.280661,11.2824335,11.282037,11.278575,11.274389,11.268226,11.264202,11.256422,11.249307,11.2401905,11.234537,11.226053,11.219797,11.211372,11.205483,11.200792,11.196589,11.186124,11.17096,11.153866,11.131458,11.110002,11.079398,11.05084,11.013452,10.987508,10.946602,10.912549,10.870522,10.846907,10.79818,10.753173,10.704148,10.638086,10.554426,10.0639925,7.7958817,5.3934755,4.4621572,4.5038085,4.4024577,4.4149957
5.1839843,7.921611,10.582796,11.204131,11.11564,11.180884,11.1921215,11.206521,11.221247,11.233458,11.243872,11.246178,11.252696,11.258971,11.264133,11.265767,11.269028,11.272483,11.279722,11.286279,11.28919,11.290253,11.293573,11.295494,11.29512,11.291665,11.287504,11.28141,11.277463,11.269804,11.262764,11.253897,11.248513,11.240461,11.234559,11.226573,11.220985,11.216657,11.212734,11.202637,11.187797,11.17098,11.148823,11.127604,11.0972395,11.06886,11.031618,11.005694,10.965041,10.931524,10.888846,10.863634,10.81508,10.771766,10.721816,10.654628,10.580287,10.104018,7.854234,5.4609065,4.518706,4.5433316,4.438381,4.4522123
5.189288,7.9159083,10.577086,11.209395,11.132012,11.197098,11.207112,11.222711,11.238114,11.24992,11.259768,11.261718,11.2677765,11.2737665,11.278648,11.280181,11.283377,11.286859,11.2941,11.300688,11.303687,11.30487,11.308315,11.310321,11.309937,11.30648,11.302357,11.296358,11.292496,11.284998,11.278087,11.269526,11.2644415,11.25685,11.251313,11.243796,11.238545,11.234621,11.231021,11.221348,11.206898,11.190455,11.168656,11.147775,11.117729,11.089558,11.052493,11.026624,10.986272,10.953384,10.90967,10.882183,10.833589,10.792288,10.740889,10.671728,10.605614,10.144054,7.919717,5.5423274,4.5878263,4.5902176,4.4791274,4.492855
5.2229123,7.9290075,10.575685,11.214395,11.1470995,11.2121105,11.221288,11.237746,11.253622,11.265118,11.274517,11.276171,11.281825,11.2875395,11.292178,11.293646,11.296813,11.300329,11.307548,11.314124,11.3171835,11.318455,11.321979,11.324002,11.323545,11.320043,11.315961,11.310061,11.306276,11.298928,11.292139,11.28389,11.279121,11.271969,11.266752,11.259661,11.254723,11.25119,11.24792,11.238678,11.224663,11.208686,11.1873865,11.166974,11.137413,11.109588,11.0728655,11.047176,11.007271,10.975171,10.930135,10.899799,10.850797,10.811514,10.758202,10.68607,10.622514,10.171512,7.9811726,5.6314926,4.666465,4.6434693,4.524954,4.53776
5.2681623,7.9519873,10.578685,11.219474,11.1593275,11.224232,11.23317,11.250559,11.266998,11.278244,11.287288,11.288719,11.294062,11.299567,11.304015,11.30543,11.308611,11.312199,11.319426,11.326001,11.329127,11.330497,11.334135,11.336203,11.335653,11.332078,11.328029,11.322201,11.31847,11.311197,11.304441,11.29641,11.291913,11.285115,11.2801485,11.273387,11.268697,11.265511,11.262556,11.253705,11.240095,11.224564,11.20376,11.183819,11.154768,11.127328,11.091006,11.065537,11.02614,10.994896,10.948476,10.915126,10.865467,10.827994,10.772634,10.697172,10.632311,10.188138,8.0336895,5.7161565,4.74209,4.6940026,4.5690546,4.5813937
5.349856,8.00493,10.597081,11.230844,11.172264,11.236737,11.246412,11.264809,11.281892,11.292911,11.301617,11.302831,11.307842,11.313102,11.3173065,11.318627,11.32178,11.325407,11.33257,11.339074,11.342215,11.343647,11.347361,11.349431,11.348741,11.345083,11.341104,11.335416,11.331785,11.324668,11.318011,11.310295,11.306139,11.299734,11.294998,11.288554,11.2841015,11.281234,11.27858,11.270134,11.257007,11.2420635,11.2219715,11.202694,11.17442,11.147603,11.111994,11.086979,11.048412,11.018333,10.970352,10.933395,10.882956,10.847654,10.790313,10.711094,10.641564,10.201705,8.088291,5.810639,4.8310223,4.758259,4.626186,4.6376367
5.423855,8.058549,10.621384,11.244373,11.182254,11.246161,11.257057,11.276325,11.293974,11.304803,11.31321,11.314214,11.318898,11.323904,11.327822,11.328989,11.332011,11.335589,11.342593,11.348953,11.352022,11.353437,11.357144,11.359173,11.358353,11.354655,11.350772,11.345275,11.341782,11.3349,11.328426,11.321076,11.317249,11.311209,11.306667,11.300501,11.296244,11.293608,11.291165,11.283038,11.2703285,11.255912,11.236472,11.217801,11.190255,11.16404,11.129136,11.104593,11.066805,11.03775,10.98836,10.948164,10.897181,10.864063,10.805783,10.723959,10.650372,10.212715,8.128393,5.880135,4.8991694,4.8110948,4.6734385,4.6841083
5.545731,8.14714,10.6599045,11.264196,11.19551,11.258434,11.270956,11.290765,11.3088,11.319523,11.327775,11.328684,11.333163,11.337979,11.341739,11.342864,11.345868,11.34945,11.356367,11.362636,11.365706,11.367151,11.370853,11.372822,11.371864,11.368122,11.364338,11.359021,11.355644,11.349005,11.342747,11.33578,11.332275,11.326525,11.322081,11.316072,11.311923,11.309369,11.30702,11.299124,11.286841,11.273031,11.254413,11.236498,11.209904,11.1844845,11.150599,11.126793,11.09016,11.06231,11.01251,10.970391,10.919159,10.887395,10.827799,10.743461,10.665342,10.230258,8.179436,5.966048,4.987499,4.8854256,4.7416525,4.750088
5.647908,8.219814,10.688902,11.278487,11.205557,11.267707,11.28119,11.300942,11.318999,11.329764,11.338104,11.339099,11.343625,11.348432,11.352283,11.353533,11.356674,11.360347,11.367326,11.373632,11.376805,11.378334,11.382057,11.383993,11.382973,11.379199,11.375461,11.370211,11.366861,11.360319,11.354176,11.347386,11.344019,11.338319,11.333815,11.327753,11.323558,11.320895,11.31848,11.310615,11.298548,11.28511,11.267045,11.249642,11.22372,11.198863,11.1657505,11.142541,11.106806,11.079697,11.030659,10.988893,10.937777,10.905783,10.844917,10.759275,10.679031,10.246574,8.2182045,6.0280614,5.052613,4.9424224,4.794213,4.7998095
5.7979865,8.328019,10.734036,11.300391,11.219329,11.280107,11.294993,11.314513,11.332456,11.343206,11.351568,11.352604,11.357104,11.361837,11.365735,11.367108,11.370381,11.374148,11.381193,11.3875475,11.390855,11.392491,11.396238,11.398121,11.397005,11.39316,11.389435,11.384216,11.38087,11.374428,11.368424,11.361864,11.358686,11.353097,11.34857,11.342508,11.338305,11.33555,11.333074,11.325262,11.313471,11.300495,11.28311,11.266332,11.24124,11.217081,11.184975,11.162564,11.128077,11.101954,11.054497,11.014051,10.963391,10.930716,10.868306,10.781181,10.696986,10.266223,8.264746,6.1047487,5.138115,5.02396,4.87482,4.8784328
5.906064,8.407146,10.768728,11.317146,11.228796,11.288424,11.304349,11.323644,11.341423,11.352104,11.360386,11.361379,11.365769,11.370397,11.374251,11.375663,11.378979,11.382786,11.389857,11.396241,11.39963,11.401338,11.405098,11.406938,11.405748,11.40183,11.39808,11.392847,11.389485,11.383095,11.377175,11.370773,11.367733,11.362263,11.357771,11.351776,11.347616,11.344855,11.342374,11.33463,11.323029,11.310349,11.293387,11.276994,11.252419,11.228694,11.197244,11.175359,11.141735,11.116275,11.070198,11.031112,10.980948,10.947634,10.884208,10.79612,10.708582,10.277865,8.292255,6.15173,5.194119,5.0820637,4.936007,4.9397535
6.073505,8.527366,10.818019,11.339959,11.24205,11.2999115,11.317226,11.336172,11.353712,11.364296,11.372508,11.3735,11.3778105,11.382339,11.386139,11.387564,11.390856,11.394626,11.40163,11.407967,11.411377,11.413114,11.41685,11.418616,11.417344,11.41333,11.409516,11.404225,11.40082,11.394492,11.388703,11.382531,11.379685,11.374416,11.370019,11.364158,11.3600645,11.357267,11.354708,11.346967,11.335506,11.3230915,11.306555,11.290556,11.266582,11.243385,11.212825,11.191701,11.159363,11.134924,11.090831,11.053608,11.00424,10.970235,10.907062,10.819192,10.723557,10.288231,8.325521,6.2160573,5.2739377,5.1665053,5.024585,5.028273
6.2038875,8.619462,10.853548,11.355643,11.251338,11.307825,11.326075,11.3447275,11.362076,11.372598,11.3808,11.381835,11.3861475,11.390639,11.394413,11.395819,11.3990345,11.402712,11.409596,11.41584,11.4192,11.42091,11.424599,11.426308,11.424996,11.420921,11.417042,11.411685,11.408227,11.401936,11.396246,11.390241,11.387532,11.382436,11.378143,11.372412,11.368378,11.365543,11.362887,11.35509,11.343644,11.331304,11.31494,11.29911,11.275458,11.252567,11.2226,11.202012,11.170621,11.146952,11.104306,11.068408,11.01968,10.985309,10.923575,10.837064,10.733255,10.291245,8.345091,6.260247,5.331227,5.228493,5.089659,5.093274
6.3915577,8.751718,10.904015,11.377348,11.263744,11.3182955,11.337822,11.355798,11.372778,11.383366,11.391754,11.39297,11.397459,11.402023,11.405904,11.407369,11.410583,11.414194,11.420997,11.42718,11.4305315,11.4322605,11.435937,11.437634,11.436329,11.432234,11.4283,11.4228945,11.419406,11.413191,11.407636,11.401861,11.3993435,11.394512,11.390407,11.384908,11.381003,11.378203,11.3755,11.367721,11.356367,11.344182,11.328068,11.312464,11.289203,11.266676,11.23739,11.217397,11.187087,11.164309,11.123395,11.089112,11.041107,11.006237,10.94715,10.863455,10.749242,10.298897,8.37866,6.329935,5.416944,5.3174543,5.182333,5.186073
6.5446267,8.85811,10.9427595,11.393406,11.2732525,11.326324,11.346825,11.364206,11.380918,11.391663,11.400327,11.401759,11.406485,11.41117,11.415196,11.416732,11.419964,11.423528,11.43027,11.4364,11.439742,11.441487,11.445176,11.446904,11.445644,11.441575,11.437624,11.432202,11.428713,11.42256,11.41709,11.411475,11.409096,11.404495,11.40058,11.395316,11.391559,11.388861,11.38619,11.378498,11.367255,11.3552,11.339255,11.323797,11.300775,11.278473,11.249596,11.229955,11.200305,11.178075,11.13828,11.105063,11.057497,11.022263,10.965867,10.885148,10.76253,10.305405,8.408565,6.391079,5.4892035,5.3894224,5.256732,5.2607613
6.7425942,8.992342,10.9875765,11.411697,11.286454,11.337954,11.359833,11.377007,11.393754,11.404671,11.413574,11.415174,11.420018,11.424704,11.428713,11.43019,11.433263,11.436622,11.4431,11.44901,11.452169,11.453821,11.457457,11.459179,11.457935,11.453869,11.449881,11.444433,11.440938,11.434822,11.429401,11.423926,11.421695,11.4174,11.413777,11.408867,11.40534,11.402857,11.400309,11.392798,11.381739,11.369869,11.354151,11.33891,11.316218,11.294206,11.265849,11.24667,11.217814,11.19621,11.157719,11.125767,11.078705,11.043012,10.989625,10.912043,10.776887,10.310065,8.446438,6.472713,5.5840726,5.481273,5.351269,5.355683
6.91194,9.10359,11.0214405,11.425366,11.2986355,11.34895,11.371908,11.389222,11.406253,11.41734,11.426465,11.42821,11.433141,11.437795,11.441734,11.443114,11.445987,11.449123,11.455294,11.46094,11.463871,11.465399,11.468986,11.470722,11.469502,11.465446,11.461432,11.455961,11.452469,11.446345,11.440902,11.435468,11.4333105,11.429251,11.425891,11.421281,11.417956,11.415686,11.413277,11.405951,11.39505,11.383318,11.367759,11.352688,11.330258,11.308473,11.280521,11.261707,11.233444,11.212278,11.17473,11.143712,11.096929,11.060767,11.009734,10.934573,10.787275,10.311802,8.48257,6.552564,5.674261,5.565126,5.4369044,5.441753
7.07866,9.211812,11.055067,11.439509,11.311514,11.360458,11.384229,11.401622,11.418941,11.43024,11.439718,11.441751,11.446959,11.451715,11.455738,11.457103,11.459893,11.462883,11.4688225,11.47425,11.476997,11.478447,11.482043,11.483847,11.482684,11.478656,11.474613,11.4691105,11.465617,11.459462,11.453967,11.448519,11.446395,11.442507,11.439359,11.434971,11.431774,11.429621,11.427275,11.420051,11.409247,11.397583,11.382124,11.367172,11.344987,11.323444,11.295945,11.2775345,11.24993,11.229262,11.19274,11.162729,11.116101,11.079238,11.030531,10.957913,10.797475,10.313345,8.52488,6.6455455,5.7782164,5.6606426,5.5346026,5.5402436
7.244493,9.316474,11.08564,11.452532,11.3252125,11.372728,11.396913,11.414295,11.431851,11.443377,11.453244,11.455602,11.46113,11.46602,11.470179,11.471581,11.474361,11.477276,11.483071,11.488363,11.491024,11.492493,11.496191,11.498161,11.497144,11.493221,11.489193,11.483692,11.480217,11.47402,11.468436,11.462905,11.460746,11.456947,11.453953,11.449701,11.446569,11.444475,11.44216,11.4349985,11.424252,11.41261,11.397205,11.3823395,11.360352,11.339008,11.311875,11.293791,11.266701,11.2464075,11.210664,11.181427,11.134774,11.0971775,11.05038,10.979993,10.807175,10.316396,8.573907,6.749597,5.8928556,5.7640624,5.6388516,5.644741
7.401231,9.415145,11.11436,11.464893,11.338418,11.384566,11.409039,11.42631,11.444021,11.455773,11.465991,11.468611,11.474373,11.479326,11.483572,11.485005,11.487773,11.4906225,11.496324,11.501551,11.50421,11.505783,11.5096445,11.511852,11.511054,11.50733,11.503384,11.497956,11.494541,11.488344,11.4827,11.4771,11.474901,11.471174,11.46832,11.464188,11.461116,11.459093,11.456831,11.449751,11.439088,11.427505,11.412187,11.397439,11.375638,11.354461,11.327591,11.309736,11.282977,11.2629,11.227657,11.19894,11.152219,11.11407,11.068809,11.000272,10.817314,10.322163,8.623214,6.8497605,6.0022798,5.8619533,5.7359495,5.74127
7.6153903,9.54726,11.147385,11.477828,11.355398,11.3999,11.424427,11.441336,11.458982,11.470895,11.481377,11.484201,11.490126,11.495106,11.499428,11.500923,11.503714,11.50654,11.5122,11.517424,11.520159,11.521903,11.525979,11.528462,11.527922,11.5244055,11.520532,11.515139,11.511746,11.505486,11.499724,11.493974,11.491673,11.48796,11.485217,11.481172,11.478146,11.476191,11.473984,11.466977,11.4563675,11.444803,11.429523,11.414862,11.393197,11.37212,11.345438,11.327766,11.301275,11.281379,11.246544,11.218253,11.171422,11.132759,11.0890875,11.022508,10.828655,10.32997,8.683747,6.971259,6.1361933,5.9829216,5.8548875,5.8586583
7.8117867,9.667583,11.173988,11.486756,11.369278,11.4124775,11.4370775,11.453672,11.471193,11.483159,11.493748,11.496665,11.502653,11.507634,11.512011,11.513568,11.516399,11.519234,11.524889,11.530123,11.532927,11.534799,11.539024,11.541681,11.541294,11.537875,11.533998,11.52855,11.525113,11.51872,11.512814,11.506874,11.504451,11.500694,11.498011,11.494001,11.490989,11.489062,11.4868765,11.479886,11.469265,11.457649,11.442334,11.427686,11.40608,11.385041,11.358497,11.340982,11.314752,11.295053,11.260597,11.232665,11.18587,11.146941,11.104625,11.039601,10.8369255,10.335518,8.732686,7.0702615,6.2453876,6.0813775,5.9513197,5.9537306
8.077005,9.8273535,11.206692,11.498186,11.390049,11.431475,11.455457,11.471121,11.487988,11.499872,11.510453,11.513424,11.51943,11.524396,11.528822,11.53046,11.533355,11.5362215,11.541901,11.547176,11.550103,11.552146,11.556536,11.559361,11.559128,11.555783,11.551886,11.546342,11.542817,11.536251,11.53019,11.524049,11.521497,11.517687,11.515061,11.511115,11.508164,11.50633,11.504224,11.49731,11.486714,11.475068,11.459699,11.445036,11.423406,11.402311,11.375748,11.358261,11.332121,11.312512,11.278275,11.250588,11.203461,11.163875,11.122944,11.059807,10.846861,10.342664,8.791331,7.1901097,6.3846684,6.2149982,6.083738,6.0834427
8.270429,9.942545,11.2290945,11.506568,11.406689,11.446763,11.4698105,11.484431,11.500503,11.512246,11.522765,11.525773,11.531794,11.536756,11.541219,11.542908,11.545853,11.54875,11.554451,11.559762,11.562787,11.564955,11.569444,11.572364,11.572216,11.568916,11.565005,11.559397,11.555802,11.549135,11.543005,11.536771,11.534159,11.530331,11.527744,11.523876,11.521015,11.519306,11.517312,11.510521,11.500007,11.488394,11.473014,11.458342,11.436647,11.415461,11.388763,11.371171,11.344922,11.325259,11.29099,11.263342,11.215645,11.175275,11.135056,11.073208,10.853629,10.347668,8.828905,7.268103,6.4811573,6.3139143,6.1831326,6.180325
8.528527,10.093385,11.258877,11.519237,11.431746,11.469968,11.4914055,11.5044985,11.519356,11.530847,11.541134,11.54404,11.549927,11.554816,11.559259,11.560995,11.563988,11.566936,11.572702,11.578113,11.5813265,11.583693,11.588321,11.591323,11.591215,11.587897,11.58395,11.578241,11.574545,11.567738,11.561516,11.555148,11.552443,11.548661,11.546226,11.542497,11.539722,11.538137,11.536242,11.529559,11.519086,11.507444,11.491967,11.477226,11.455371,11.433984,11.406997,11.38918,11.36267,11.342862,11.308414,11.280687,11.232213,11.190891,11.151645,11.091548,10.863174,10.355717,8.884578,7.3822455,6.6221223,6.458287,6.3279552,6.3212557
8.703169,10.19341,11.278707,11.528553,11.4504,11.48736,11.507506,11.519513,11.533482,11.544768,11.554806,11.557534,11.563221,11.56801,11.572386,11.574138,11.577148,11.580136,11.58598,11.591502,11.59489,11.597418,11.602162,11.6051855,11.6050005,11.60157,11.597574,11.591797,11.588043,11.5811405,11.574838,11.568346,11.565544,11.561895,11.559729,11.556164,11.553408,11.551875,11.550003,11.543346,11.532853,11.521134,11.505533,11.49071,11.468698,11.447127,11.419875,11.401857,11.375105,11.355157,11.320503,11.292642,11.243651,11.201783,11.163228,11.104341,10.870048,10.362161,8.926226,7.4665384,6.7254167,6.563346,6.4330606,6.4234405
8.916445,10.315995,11.309012,11.545784,11.477837,11.512897,11.531095,11.541488,11.554072,11.564943,11.574509,11.576958,11.5823345,11.586986,11.591269,11.593039,11.596063,11.599081,11.604961,11.610537,11.614073,11.616643,11.621018,11.623992,11.624528,11.621767,11.617829,11.611811,11.607688,11.600616,11.594476,11.588258,11.5857,11.581248,11.577823,11.573916,11.57164,11.570232,11.568319,11.561674,11.551124,11.53925,11.523425,11.508443,11.486182,11.464349,11.436727,11.418413,11.391336,11.371221,11.336333,11.30832,11.258754,11.216281,11.178745,11.121515,10.878828,10.370785,8.986864,7.590097,6.8776765,6.7187815,6.588388,6.5740876
9.040786,10.387501,11.331905,11.561036,11.49816,11.531793,11.548512,11.557748,11.569288,11.579774,11.588919,11.591143,11.596278,11.600834,11.60505,11.606837,11.609866,11.612891,11.618756,11.624309,11.627871,11.63037,11.6342535,11.63725,11.638839,11.637074,11.633263,11.626988,11.622424,11.615214,11.609361,11.60362,11.601473,11.595836,11.590485,11.585868,11.584081,11.582735,11.580761,11.574088,11.563471,11.551442,11.535413,11.520282,11.497816,11.475782,11.447884,11.429341,11.402028,11.381803,11.346767,11.318658,11.268773,11.225978,11.189168,11.133062,10.884449,10.376712,9.031448,7.6813273,6.990613,6.8344555,6.7039366,6.6859875
9.176777,10.464066,11.361462,11.58321,11.525974,11.557662,11.572505,11.580765,11.591382,11.601395,11.610046,11.612032,11.616937,11.621419,11.625616,11.627467,11.630582,11.633693,11.63968,11.645286,11.648421,11.651151,11.656795,11.661811,11.66426,11.662902,11.659207,11.652825,11.648051,11.640717,11.634921,11.629274,11.627217,11.621228,11.615207,11.608523,11.604657,11.602517,11.600907,11.594157,11.583358,11.571044,11.554654,11.53925,11.516416,11.494033,11.465626,11.446653,11.418842,11.398341,11.3629265,11.334571,11.28393,11.240365,11.204187,11.14946,10.892901,10.385936,9.093839,7.807574,7.1460114,6.9934373,6.86394,6.8421917
9.249349,10.503391,11.382948,11.601497,11.54695,11.577107,11.590668,11.598739,11.609109,11.61878,11.627103,11.628966,11.633776,11.638256,11.6425085,11.644457,11.6477165,11.650963,11.657108,11.662855,11.665718,11.669093,11.677439,11.685017,11.687799,11.686236,11.682609,11.676293,11.671597,11.66421,11.658267,11.652373,11.650111,11.644555,11.639113,11.630154,11.623043,11.61963,11.618418,11.611513,11.600521,11.5879135,11.571175,11.5555,11.532314,11.509617,11.480735,11.461349,11.433033,11.41223,11.376392,11.347759,11.296349,11.25202,11.216041,11.162198,10.899835,10.393999,9.143142,7.906048,7.2665224,7.116636,6.9889703,6.9653435
9.344116,10.555222,11.410026,11.623389,11.571569,11.599627,11.611792,11.62001,11.630373,11.63962,11.647547,11.649284,11.65402,11.658533,11.662925,11.665064,11.668597,11.672092,11.67834,11.684471,11.688577,11.693747,11.704025,11.713079,11.716239,11.714697,11.711146,11.704869,11.700195,11.692753,11.686712,11.6806345,11.678207,11.672837,11.667623,11.65642,11.646311,11.641405,11.640191,11.632966,11.621731,11.608708,11.591502,11.575497,11.551826,11.528628,11.498979,11.478864,11.449994,11.4291935,11.393074,11.364039,11.311711,11.266534,11.23111,11.178697,10.909213,10.404869,9.206311,8.031427,7.419407,7.272803,7.1481853,7.1230383
9.418464,10.59555,11.432905,11.641932,11.591713,11.617869,11.629084,11.637947,11.648734,11.657651,11.665309,11.667013,11.671768,11.676361,11.680945,11.683302,11.687136,11.690889,11.697122,11.703718,11.710045,11.7175665,11.728687,11.737919,11.74129,11.739858,11.73637,11.730139,11.725504,11.718027,11.711905,11.705653,11.703059,11.697705,11.692566,11.680195,11.66842,11.661818,11.659572,11.651797,11.640475,11.627078,11.609461,11.593118,11.569114,11.545714,11.515759,11.495398,11.465938,11.444506,11.407687,11.37832,11.325286,11.279487,11.243843,11.191817,10.916987,10.415463,9.262636,8.141273,7.5525966,7.4086537,7.2873673,7.2617083
9.496818,10.638203,11.458214,11.662711,11.614059,11.638186,11.648449,11.658111,11.669467,11.678072,11.685515,11.68725,11.692098,11.696807,11.701624,11.704211,11.708364,11.712333,11.718243,11.725068,11.733919,11.744142,11.755863,11.765149,11.76916,11.7683115,11.765006,11.758879,11.754301,11.746815,11.740634,11.734239,11.731503,11.725947,11.72061,11.707563,11.694762,11.685604,11.680963,11.672296,11.6611185,11.647352,11.629333,11.612561,11.588374,11.565064,11.535695,11.51651,11.486379,11.462447,11.423651,11.394112,11.340481,11.294104,11.257132,11.20421,10.924355,10.427731,9.325217,8.261819,7.6985283,7.557356,7.4393888,7.412905
9.581569,10.683654,11.482329,11.683041,11.637657,11.659878,11.669266,11.679991,11.692153,11.700506,11.707804,11.709616,11.71458,11.719388,11.724414,11.727201,11.731558,11.735706,11.741691,11.749137,11.760373,11.772861,11.784979,11.79381,11.797565,11.7964735,11.793124,11.786997,11.782456,11.774881,11.768538,11.761801,11.758735,11.752986,11.747725,11.73565,11.723558,11.711716,11.703461,11.693695,11.6829,11.668859,11.650529,11.633214,11.609229,11.587114,11.55912,11.54103,11.509483,11.4821005,11.440638,11.410937,11.356882,11.310134,11.2695055,11.212848,10.929294,10.4410925,9.390085,8.384306,7.846347,7.707825,7.5932517,7.565966
9.669339,10.729711,11.5023985,11.700369,11.660175,11.680675,11.689147,11.700957,11.713978,11.722174,11.729227,11.730874,11.735599,11.740248,11.745695,11.749179,11.753849,11.758105,11.764818,11.773422,11.786343,11.80043,11.813988,11.822755,11.824571,11.8214035,11.817581,11.811276,11.806748,11.798946,11.792251,11.784813,11.7811,11.775489,11.771102,11.761431,11.751238,11.736975,11.724697,11.714059,11.704013,11.689838,11.671249,11.653315,11.629842,11.609867,11.583625,11.565891,11.532345,11.5016,11.457418,11.427362,11.372911,11.325974,11.280293,11.218104,10.932031,10.453679,9.448868,8.493815,7.978454,7.8431377,7.7335343,7.707272
9.784735,10.790914,11.526261,11.721267,11.689107,11.708018,11.715568,11.728549,11.742414,11.750286,11.757357,11.759392,11.76467,11.769709,11.774702,11.777277,11.781426,11.785953,11.7942095,11.804681,11.818866,11.833104,11.846041,11.853149,11.853038,11.848145,11.843795,11.8372135,11.832615,11.82456,11.817559,11.809501,11.805205,11.799584,11.795862,11.78894,11.781382,11.766017,11.750687,11.738881,11.728751,11.714372,11.695697,11.677116,11.65432,11.637317,11.612083,11.59191,11.555218,11.52283,11.47725,11.446888,11.392144,11.345016,11.292522,11.222774,10.933581,10.468314,9.523205,8.63306,8.146083,8.012151,7.903174,7.8728476
9.880916,10.842502,11.546045,11.738552,11.713209,11.73108,11.737986,11.75176,11.76612,11.7736225,11.780749,11.783224,11.789855,11.796287,11.799904,11.799599,11.802534,11.8077545,11.817866,11.83028,11.845451,11.858632,11.868169,11.872067,11.871674,11.8671255,11.86264,11.855895,11.851197,11.84305,11.836027,11.827875,11.823478,11.817536,11.813584,11.80812,11.802478,11.787556,11.77137,11.758504,11.747439,11.732823,11.7142315,11.6952,11.672973,11.658732,11.633158,11.60802,11.568262,11.5374775,11.492786,11.461926,11.406815,11.359483,11.301929,11.226539,10.933016,10.476987,9.585657,8.754443,8.2911,8.154438,8.040555,8.002151
10.014724,10.916449,11.575353,11.764022,11.747909,11.764956,11.771358,11.785914,11.800618,11.807348,11.815723,11.820875,11.829528,11.836195,11.838016,11.834946,11.835896,11.840752,11.851882,11.865588,11.880575,11.891811,11.897781,11.898685,11.898169,11.894056,11.889379,11.882337,11.877416,11.869094,11.862058,11.85381,11.849297,11.84294,11.838595,11.833563,11.8289585,11.815993,11.80102,11.78663,11.773174,11.758067,11.739653,11.7203455,11.698064,11.684807,11.657875,11.628733,11.586007,11.555399,11.511845,11.482423,11.428088,11.380352,11.316127,11.233644,10.938331,10.498367,9.67548,8.91862,8.491896,8.357287,8.2348,8.180931
10.115562,10.973668,11.599211,11.784521,11.774837,11.791518,11.797721,11.812677,11.827435,11.833389,11.843509,11.852112,11.862339,11.867952,11.868715,11.864731,11.863993,11.86745,11.878097,11.891812,11.90588,11.915888,11.920743,11.92085,11.920134,11.915917,11.91103,11.903709,11.898581,11.890071,11.882983,11.874578,11.869896,11.863319,11.858812,11.853101,11.848095,11.837181,11.824425,11.808874,11.793053,11.777491,11.759135,11.739596,11.716494,11.701927,11.673802,11.644615,11.600578,11.56743,11.5245,11.49875,11.446627,11.398482,11.328742,11.240456,10.946583,10.521342,9.744681,9.038478,8.645769,8.520634,8.390526,8.320574
10.2613125,11.056097,11.632306,11.813616,11.814415,11.831061,11.837319,11.853012,11.867827,11.872433,11.885486,11.900008,11.911564,11.913535,11.913127,11.909934,11.907941,11.909422,11.918996,11.931666,11.9425335,11.949411,11.953053,11.952818,11.951758,11.947193,11.941949,11.934178,11.928725,11.919918,11.912743,11.904113,11.899208,11.892352,11.8876505,11.881077,11.875594,11.8676195,11.857916,11.84042,11.821013,11.804708,11.787019,11.768796,11.745479,11.728099,11.697344,11.668084,11.623177,11.588463,11.543808,11.517226,11.464118,11.415419,11.34183,11.250969,10.963245,10.559547,9.8491125,9.20932,8.843361,8.715539,8.583211,8.506958
10.367212,11.11567,11.655208,11.834137,11.843291,11.860133,11.86662,11.883069,11.897832,11.900962,11.91655,11.936567,11.948674,11.946373,11.945279,11.944104,11.941948,11.941988,11.950685,11.962036,11.969248,11.972773,11.975692,11.975694,11.9743395,11.969403,11.96387,11.955749,11.950045,11.94101,11.933766,11.92498,11.919926,11.912886,11.908061,11.901023,11.895369,11.889561,11.88193,11.862637,11.840337,11.823484,11.806823,11.790743,11.768021,11.748123,11.71484,11.685279,11.640361,11.606178,11.55848,11.526858,11.469982,11.420864,11.347378,11.258731,10.977895,10.589609,9.927246,9.331443,8.96874,8.826917,8.6992855,8.63073
10.508648,11.195554,11.686395,11.863676,11.885918,11.90448,11.911676,11.927489,11.944247,11.951978,11.968017,11.983811,11.992083,11.988325,11.987462,11.988076,11.987421,11.987698,11.994218,12.002106,12.006094,12.007424,12.009549,12.009402,12.007639,12.002186,11.996208,11.987559,11.9815035,11.972146,11.964796,11.955791,11.950539,11.943294,11.938369,11.930981,11.925159,11.920352,11.914055,11.895568,11.873046,11.854386,11.836739,11.823267,11.801553,11.778239,11.741727,11.712143,11.667314,11.633601,11.581118,11.5419235,11.480338,11.431884,11.3585415,11.27224,11.002712,10.638098,10.041939,9.505867,9.149435,8.989625,8.866796,8.806328
10.603335,11.249018,11.707713,11.88509,11.917604,11.9384365,11.946449,11.960718,11.980077,11.995156,12.009314,12.014357,12.016933,12.015135,12.015247,12.016467,12.018026,12.019962,12.024346,12.028745,12.031718,12.033157,12.034902,12.03436,12.032307,12.02648,12.020154,12.011114,12.004812,11.995228,11.987801,11.978649,11.97327,11.965926,11.960986,11.953571,11.947694,11.942158,11.935682,11.92005,11.90006,11.879595,11.8596735,11.847592,11.826548,11.800963,11.762473,11.733141,11.688499,11.655038,11.598863,11.55393,11.489203,11.441835,11.368695,11.283869,11.02388,10.67753,10.126599,9.630318,9.278557,9.106889,8.986792,8.931044
10.733599,11.319109,11.738799,11.91676,11.96307,11.985902,11.994827,12.009607,12.028398,12.042506,12.053321,12.054466,12.0549755,12.054024,12.054477,12.055813,12.058073,12.060415,12.063397,12.065745,12.067614,12.06849,12.0696335,12.068556,12.066076,12.059742,12.052976,12.043471,12.036901,12.027105,12.019636,12.010378,12.004894,11.9975,11.992586,11.985163,11.979228,11.973002,11.966484,11.953784,11.937055,11.917764,11.896623,11.881742,11.8576,11.830722,11.79165,11.762462,11.717854,11.684415,11.626339,11.578709,11.509903,11.45954,11.384639,11.302546,11.058049,10.737913,10.240404,9.790335,9.450068,9.27099,9.155672,9.105158
10.828503,11.367338,11.76185,11.940244,11.996974,12.022325,12.032504,12.047764,12.063246,12.071497,12.0797205,12.083355,12.085392,12.084429,12.084639,12.085469,12.086949,12.088665,12.091476,12.09388,12.095338,12.09564,12.096326,12.094805,12.091986,12.085278,12.078207,12.068411,12.061699,12.051812,12.04435,12.035071,12.029553,12.022177,12.01731,12.009929,12.003979,11.997208,11.990545,11.979504,11.965188,11.948704,11.927644,11.90814,11.879682,11.85313,11.814978,11.785665,11.740987,11.70756,11.650374,11.60424,11.532831,11.477554,11.399444,11.31895,11.087495,10.788033,10.32396,9.902422,9.575767,9.398974,9.288206,9.24051
10.9318695,11.417288,11.782436,11.959689,12.030516,12.067482,12.081595,12.087645,12.09645,12.106741,12.11652,12.120047,12.122188,12.1214075,12.121483,12.121954,12.123022,12.124365,12.126641,12.12848,12.129235,12.1288595,12.128994,12.126956,12.123711,12.116543,12.10912,12.098979,12.092088,12.082058,12.074566,12.065198,12.0595875,12.052127,12.047231,12.039813,12.033813,12.026699,12.019848,12.009384,11.995951,11.980328,11.959242,11.938291,11.908513,11.882219,11.84412,11.813964,11.769328,11.736989,11.681296,11.636373,11.562342,11.50227,11.417908,11.335364,11.117398,10.842865,10.418541,10.032852,9.728841,9.560986,9.456824,9.411758
11.013465,11.456737,11.7968645,11.970026,12.050261,12.098058,12.117603,12.116965,12.1225195,12.137214,12.149827,12.152652,12.154514,12.153846,12.153756,12.153907,12.15461,12.155631,12.157431,12.158784,12.158954,12.158042,12.157763,12.155357,12.151806,12.144338,12.136705,12.126377,12.119397,12.109303,12.101807,12.09239,12.086717,12.079173,12.074226,12.066761,12.06072,12.053502,12.0464325,12.035412,12.021408,12.005324,11.984335,11.964184,11.935263,11.909301,11.87091,11.839758,11.795201,11.764101,11.710586,11.667619,11.593452,11.531242,11.440764,11.353554,11.143607,10.887649,10.494226,10.138651,9.857943,9.702376,9.604424,9.560805
11.11165,11.5079365,11.814445,11.979875,12.063762,12.110728,12.136551,12.147584,12.161898,12.176112,12.1883545,12.191405,12.193602,12.193146,12.192736,12.192221,12.192139,12.1925335,12.193664,12.194508,12.194076,12.192686,12.192071,12.189425,12.185677,12.178042,12.170308,12.159923,12.1529455,12.14286,12.135374,12.12591,12.12016,12.112518,12.107491,12.099853,12.093581,12.085813,12.078175,12.066709,12.052493,12.036259,12.015323,11.99523,11.966787,11.941662,11.903995,11.872834,11.828633,11.797927,11.746699,11.706636,11.63551,11.574596,11.478702,11.384525,11.17766,10.93672,10.579425,10.26076,10.000116,9.851882,9.762362,9.723622
11.222204,11.574168,11.844977,11.998956,12.08213,12.125606,12.15817,12.185024,12.209495,12.220147,12.228993,12.231237,12.232694,12.232064,12.231423,12.23081,12.230511,12.230636,12.231222,12.231454,12.230389,12.228481,12.227479,12.224589,12.220698,12.212998,12.20523,12.1948805,12.187962,12.178059,12.170773,12.161552,12.155944,12.148516,12.143647,12.136292,12.13027,12.122782,12.115306,12.103944,12.089701,12.073402,12.052281,12.032122,12.00303,11.976738,11.937706,11.905694,11.861093,11.83031,11.78137,11.744604,11.67797,11.620111,11.52378,11.427562,11.226002,10.999013,10.675894,10.392956,10.156327,10.017808,9.930979,9.890654
11.3309555,11.643827,11.88175,12.025038,12.110168,12.158096,12.197857,12.229969,12.255574,12.26242,12.266116,12.265035,12.263477,12.261979,12.261379,12.261867,12.262661,12.263378,12.263739,12.263094,12.261195,12.25851,12.256882,12.253563,12.249467,12.24166,12.233805,12.223465,12.216582,12.207037,12.200209,12.191651,12.186515,12.179806,12.17553,12.169362,12.164595,12.159202,12.153522,12.14345,12.1296015,12.11354,12.091912,12.071611,12.039786,12.008574,11.963753,11.92834,11.881627,11.850786,11.803895,11.770068,11.705732,11.648448,11.556773,11.467351,11.27887,11.067472,10.767538,10.509935,10.310116,10.194059,10.098166,10.041536
11.470677,11.742928,11.9512415,12.079508,12.16207,12.21485,12.258681,12.288698,12.309397,12.31182,12.310504,12.306783,12.302751,12.300529,12.300029,12.301524,12.303225,12.304385,12.304602,12.303337,12.300923,12.297718,12.295547,12.291779,12.287462,12.279516,12.271557,12.261173,12.254267,12.24502,12.238637,12.230719,12.226033,12.21996,12.216164,12.210908,12.207062,12.203122,12.198683,12.189677,12.176252,12.160386,12.138148,12.117286,12.082854,12.047545,11.998232,11.960432,11.912451,11.881799,11.836603,11.804853,11.743556,11.688759,11.605826,11.527689,11.358813,11.170277,10.911142,10.690418,10.51579,10.4062605,10.30501,10.238597
11.584269,11.826177,12.020513,12.134711,12.210826,12.266111,12.309948,12.333609,12.347066,12.346015,12.342529,12.339206,12.335298,12.333028,12.332316,12.333535,12.334693,12.335352,12.335208,12.333819,12.331354,12.328069,12.325618,12.321498,12.316941,12.30877,12.300666,12.290165,12.283199,12.273993,12.267718,12.25998,12.255445,12.2494955,12.245717,12.240359,12.236268,12.231644,12.2265835,12.217545,12.20438,12.18859,12.166095,12.144289,12.109665,12.075577,12.027624,11.990153,11.942777,11.91272,11.868547,11.837472,11.77952,11.728806,11.651956,11.580266,11.425219,11.257886,11.054748,10.879948,10.6966715,10.561256,10.47007,10.41679
11.748368,11.956852,12.129935,12.227641,12.292579,12.342271,12.380013,12.397253,12.405481,12.403251,12.39974,12.397474,12.394654,12.392964,12.392793,12.39417,12.395318,12.39588,12.396024,12.395175,12.393422,12.390749,12.388568,12.384558,12.38013,12.372061,12.364042,12.353473,12.346279,12.336961,12.330796,12.323024,12.318335,12.312051,12.307904,12.301819,12.296908,12.290774,12.28434,12.274363,12.260742,12.244423,12.221423,12.199129,12.163877,12.128522,12.081592,12.047636,12.003301,11.973585,11.929477,11.897878,11.844274,11.800237,11.734091,11.67365,11.543404,11.405344,11.250653,11.112217,10.933495,10.78574,10.695893,10.644193
11.876505,12.064704,12.216629,12.304257,12.359829,12.398079,12.427425,12.443758,12.453247,12.452772,12.450931,12.44917,12.447271,12.446318,12.44716,12.449244,12.451132,12.452138,12.452892,12.452607,12.451591,12.449605,12.447961,12.444422,12.4404,12.43268,12.424908,12.414288,12.406736,12.397227,12.391221,12.3833475,12.378368,12.37164,12.367108,12.360363,12.354795,12.347618,12.340171,12.329025,12.314447,12.2972765,12.273739,12.251897,12.215267,12.175006,12.126906,12.09815,12.058037,12.028113,11.983248,11.950622,11.899662,11.860458,11.80447,11.755524,11.649915,11.534192,11.3883,11.252502,11.098898,10.968313,10.862998,10.7923565
12.067169,12.225737,12.350274,12.425118,12.470677,12.497771,12.517163,12.528748,12.536929,12.538854,12.539376,12.5383415,12.537855,12.53811,12.540793,12.54435,12.547976,12.550409,12.553562,12.555772,12.557633,12.557979,12.55775,12.555149,12.551959,12.545053,12.537914,12.5277405,12.520256,12.510697,12.504636,12.49627,12.490665,12.48275,12.477113,12.468767,12.46187,12.452976,12.444144,12.431511,12.415765,12.397391,12.373039,12.351376,12.3137045,12.270139,12.22031,12.193338,12.154778,12.124829,12.078684,12.043764,11.998418,11.969291,11.925925,11.88787,11.808792,11.719081,11.5900545,11.464579,11.337634,11.22743,11.123882,11.041899
12.2091,12.345078,12.45196,12.518395,12.559093,12.582315,12.596064,12.601164,12.605559,12.608928,12.610953,12.610385,12.610874,12.612029,12.61623,12.621125,12.626409,12.630394,12.636372,12.641639,12.6469555,12.649985,12.651217,12.649421,12.646959,12.640805,12.634288,12.624778,12.61776,12.608325,12.602009,12.593042,12.586845,12.577693,12.57086,12.560887,12.552749,12.5424385,12.5326605,12.519118,12.502725,12.483523,12.458561,12.436691,12.398909,12.355601,12.304421,12.274551,12.23396,12.204469,12.157399,12.120133,12.080387,12.061214,12.02587,11.99176,11.925686,11.850863,11.739059,11.6274185,11.512057,11.412279,11.328779,11.250896
12.399473,12.510291,12.597413,12.655101,12.691853,12.71185,12.722741,12.725416,12.729144,12.733922,12.737976,12.738725,12.741552,12.7446785,12.751539,12.758381,12.766302,12.772439,12.781283,12.789079,12.797098,12.802345,12.805269,12.804988,12.803877,12.799252,12.793954,12.785653,12.779319,12.770189,12.763697,12.754083,12.747152,12.73661,12.7285,12.716829,12.707425,12.69565,12.684848,12.670226,12.652984,12.63281,12.607056,12.5839405,12.547204,12.508779,12.458901,12.4244995,12.377617,12.344102,12.294575,12.257667,12.222051,12.20843,12.176893,12.144558,12.088112,12.027514,11.941221,11.851728,11.744307,11.646998,11.576649,11.508708
12.527465,12.625428,12.702548,12.7563505,12.792504,12.812064,12.824572,12.829965,12.836284,12.841654,12.847173,12.849415,12.854625,12.859618,12.86868,12.876886,12.8868065,12.894388,12.904454,12.912808,12.921246,12.926975,12.93082,12.931841,12.931863,12.928606,12.924391,12.917133,12.911335,12.90254,12.89605,12.886134,12.8787775,12.867532,12.858821,12.846408,12.836482,12.824071,12.812783,12.797575,12.779815,12.759114,12.732863,12.708239,12.673048,12.641099,12.594283,12.556326,12.502845,12.463684,12.411747,12.377362,12.3419075,12.326352,12.292032,12.257938,12.201724,12.146038,12.07808,12.005818,11.898176,11.794717,11.724757,11.667325
12.694873,12.77885,12.844719,12.893326,12.927522,12.945732,12.958924,12.966194,12.975199,12.982038,12.991144,12.997039,13.006162,13.01306,13.023971,13.032777,13.043555,13.051503,13.0616255,13.069675,13.077717,13.083362,13.087725,13.089634,13.090288,13.087895,13.08445,13.078138,13.072991,13.0648365,13.058625,13.048914,13.041554,13.030373,13.021742,13.009649,12.99999,12.987315,12.97545,12.959758,12.941593,12.920514,12.893834,12.868271,12.833318,12.803328,12.758411,12.720782,12.667545,12.628808,12.575876,12.539709,12.501127,12.4828825,12.44435,12.407742,12.353931,12.305376,12.24962,12.189764,12.091658,11.994972,11.930673,11.880542
12.814336,12.891723,12.952241,12.997449,13.029632,13.046669,13.05998,13.068159,13.079011,13.0872,13.099834,13.109437,13.121922,13.129896,13.141377,13.149666,13.159713,13.1667185,13.175458,13.182143,13.188719,13.193362,13.197337,13.199161,13.199565,13.1971,13.193758,13.187828,13.183088,13.17552,13.169717,13.1605625,13.153576,13.143072,13.135036,13.12398,13.1151285,13.102778,13.090752,13.075106,13.056996,13.035979,13.009272,12.983764,12.948203,12.916159,12.871801,12.837611,12.7899275,12.755967,12.704204,12.664895,12.621308,12.598893,12.555702,12.516998,12.464847,12.42037,12.364906,12.307312,12.222455,12.140246,12.082199,12.033644
12.960978,13.030908,13.086477,13.127114,13.155997,13.171297,13.18429,13.193133,13.205497,13.214767,13.230461,13.243361,13.259061,13.268305,13.280268,13.287786,13.296873,13.30273,13.309675,13.314467,13.3189,13.32184,13.324807,13.325998,13.3257475,13.322948,13.319686,13.314052,13.309562,13.302362,13.296839,13.287915,13.280975,13.270417,13.262259,13.251207,13.242524,13.230624,13.219199,13.20436,13.1869335,13.166272,13.139869,13.11473,13.079957,13.048611,13.006104,12.97403,12.929263,12.897292,12.84863,12.812191,12.763784,12.732006,12.682921,12.644228,12.593795,12.552929,12.499184,12.447139,12.381292,12.318852,12.268687,12.223011
13.083828,13.149325,13.202748,13.239287,13.264509,13.278086,13.290329,13.299197,13.312126,13.321904,13.339198,13.353857,13.371604,13.381963,13.394042,13.400528,13.408233,13.412556,13.417196,13.419594,13.421305,13.421887,13.423056,13.422916,13.421656,13.418302,13.415003,13.4095745,13.405275,13.398437,13.393244,13.384616,13.377766,13.367048,13.358571,13.347128,13.33827,13.326729,13.31603,13.301994,13.285311,13.265156,13.23943,13.21507,13.181934,13.152563,13.11248,13.081918,13.038873,13.007627,12.96285,12.931755,12.8803625,12.8394985,12.786169,12.749028,12.699637,12.660351,12.607692,12.560405,12.509935,12.463522,12.419799,12.376793
13.219317,13.280829,13.332671,13.364762,13.385947,13.397912,13.409641,13.418654,13.43243,13.443032,13.462083,13.478356,13.498744,13.511155,13.523855,13.529138,13.53495,13.536932,13.538094,13.536856,13.534524,13.531527,13.529647,13.527358,13.52489,13.521262,13.518274,13.513744,13.510245,13.504623,13.500348,13.492789,13.48652,13.476342,13.468017,13.456755,13.447923,13.436279,13.425381,13.411021,13.394278,13.374475,13.349701,13.326252,13.29506,13.267885,13.231003,13.202919,13.16307,13.133945,13.092467,13.064231,13.010834,12.964486,12.908612,12.872523,12.82405,12.786596,12.738076,12.696741,12.654615,12.616366,12.578315,12.539829
13.364203,13.420516,13.468117,13.494756,13.511031,13.520598,13.530714,13.538955,13.552307,13.562879,13.582093,13.598575,13.620049,13.633734,13.646562,13.650772,13.654806,13.654683,13.652816,13.648489,13.6427145,13.636713,13.632348,13.628328,13.624909,13.620904,13.617844,13.613717,13.61074,13.606087,13.602624,13.596254,13.590843,13.581591,13.573707,13.562945,13.554262,13.542387,13.530954,13.515895,13.498812,13.479259,13.455473,13.43297,13.403808,13.378885,13.345375,13.319951,13.2837305,13.257312,13.218473,13.191305,13.138151,13.091049,13.035512,13.000513,12.953315,12.9176235,12.873796,12.837481,12.7984,12.762799,12.728972,12.695209
13.506298,13.555243,13.594791,13.615063,13.625774,13.63189,13.639024,13.645579,13.657047,13.666359,13.684179,13.699933,13.7206745,13.734072,13.7462015,13.749703,13.752621,13.751393,13.747977,13.742199,13.734813,13.727712,13.723006,13.7188425,13.71509,13.71029,13.706229,13.701097,13.697662,13.692822,13.689466,13.683818,13.679319,13.671011,13.663608,13.653457,13.645093,13.633354,13.62182,13.606648,13.589595,13.570259,13.547158,13.525394,13.497899,13.474852,13.44417,13.420961,13.387905,13.36399,13.327207,13.300334,13.248855,13.203689,13.1500845,13.116182,13.071057,13.037489,12.9965725,12.963294,12.927946,12.896127,12.86583,12.835255
13.683519,13.7217865,13.748447,13.761227,13.766031,13.768103,13.771323,13.77528,13.783877,13.791551,13.806816,13.820583,13.838781,13.850613,13.861317,13.86438,13.866684,13.865214,13.861803,13.856244,13.848886,13.841836,13.837403,13.833375,13.8295555,13.824184,13.8193035,13.813221,13.809254,13.80403,13.800615,13.7952385,13.79119,13.783485,13.776507,13.766754,13.758507,13.746681,13.734917,13.719587,13.70256,13.683372,13.660817,13.63971,13.613563,13.591855,13.563505,13.542354,13.51249,13.49131,13.456339,13.429089,13.380004,13.338375,13.287688,13.254916,13.212141,13.180754,13.142323,13.111435,13.079349,13.051018,13.023826,12.996674
