14.385937,21.257088,25.30229,24.445745,24.34151,24.371725,24.406342,24.410728,24.428328,24.441763,24.450495,24.457663,24.46922,24.483961,24.495102,24.512304,24.52821,24.55292,24.572836,24.600885,24.620405,24.649061,24.669651,24.694916,24.710228,24.731997,24.74781,24.766415,24.779682,24.794783,24.806316,24.81717,24.824778,24.82918,24.832619,24.835754,24.839634,24.842329,24.847094,24.851215,24.857763,24.86276,24.870138,24.875525,24.882776,24.887949,24.89513,24.901041,24.908901,24.915678,24.922256,24.928003,24.9337,24.939545,24.944263,24.949654,24.953568,24.959236,24.963818,24.970352,24.975124,24.980629,24.983572,24.98724,24.989264,24.991016,24.99145,24.99218,24.992575,24.993095,24.993073,24.992285,24.991047,24.990726,24.988756,24.985802,24.98019,24.975515,24.967096,24.960226,24.947397,24.936451,24.91912,24.90555,24.885706,24.870394,24.850605,24.83532,24.81597,24.799995,24.784168,24.77026,24.75664,24.742355,24.730274,24.716692,24.70673,24.694706,24.686285,24.676722,24.67173,24.662762,24.65533,24.639479,24.625525,24.624342,24.630444,24.617235,24.588415,24.946884,24.534882,22.786724,19.368069,14.897172,11.380543,11.002985,11.30151,11.265661,11.222503
14.488857,21.290508,25.295036,24.447481,24.345192,24.376055,24.4113,24.41633,24.43479,24.449059,24.45871,24.466715,24.478989,24.49444,24.5062,24.524067,24.54045,24.565647,24.58581,24.614244,24.63408,24.663225,24.684187,24.709951,24.725609,24.747908,24.764135,24.78319,24.796736,24.812082,24.823742,24.834717,24.842377,24.846806,24.850203,24.853277,24.857029,24.859615,24.864164,24.868101,24.874344,24.879114,24.886148,24.891283,24.898123,24.902966,24.909756,24.915388,24.92288,24.929346,24.93559,24.941076,24.946566,24.952267,24.95688,24.962208,24.9661,24.971758,24.976334,24.982866,24.987646,24.993126,24.996017,24.999619,25.0016,25.003336,25.003794,25.004574,25.00503,25.005617,25.005651,25.00492,25.003698,25.00338,25.00134,24.998272,24.992498,24.98772,24.97914,24.972141,24.959118,24.948025,24.930534,24.916885,24.89689,24.88145,24.861528,24.846153,24.826666,24.810535,24.7945,24.780333,24.766455,24.751808,24.73938,24.725332,24.715014,24.702494,24.693674,24.683651,24.678389,24.669136,24.661587,24.645647,24.63165,24.629911,24.635164,24.62097,24.590666,24.956478,24.530916,22.690317,19.236061,14.888308,11.503817,11.139783,11.430332,11.395137,11.353079
14.611287,21.329576,25.285782,24.449581,24.3499,24.381414,24.417376,24.423145,24.44257,24.457747,24.46837,24.477262,24.49031,24.506538,24.518965,24.537558,24.554472,24.580248,24.600742,24.629677,24.649897,24.679653,24.701084,24.727455,24.743519,24.766413,24.783085,24.80261,24.81641,24.83194,24.843626,24.854635,24.862257,24.866627,24.869892,24.872831,24.876396,24.878849,24.883158,24.886889,24.892803,24.897327,24.904009,24.908892,24.91532,24.919825,24.926228,24.931587,24.938738,24.944921,24.950851,24.956089,24.961407,24.966997,24.971533,24.97682,24.98071,24.986355,24.990915,24.997404,25.002146,25.007513,25.010284,25.013721,25.015589,25.01724,25.017687,25.018492,25.019009,25.019684,25.019806,25.019142,25.017967,25.017687,25.015621,25.012465,25.006575,25.001736,24.993076,24.986032,24.972916,24.961737,24.944181,24.930525,24.910446,24.894897,24.874863,24.859392,24.839748,24.823425,24.807129,24.792633,24.778427,24.763353,24.750505,24.735922,24.725204,24.712137,24.702883,24.692371,24.686846,24.67733,24.66968,24.653736,24.639778,24.637148,24.641106,24.626017,24.59436,24.966316,24.526321,22.592428,19.106892,14.894137,11.652232,11.302443,11.583756,11.549006,11.50802
14.708971,21.359846,25.27713,24.450315,24.352882,24.384935,24.42149,24.42784,24.448006,24.463846,24.475168,24.484682,24.498295,24.515102,24.528046,24.547224,24.564558,24.590836,24.611662,24.641077,24.661654,24.691957,24.713797,24.740698,24.757093,24.780447,24.797432,24.817291,24.831255,24.846867,24.85852,24.869505,24.877062,24.88135,24.884491,24.887318,24.89074,24.893105,24.897268,24.900883,24.906616,24.911003,24.917503,24.922262,24.928476,24.932804,24.939014,24.944258,24.951265,24.957335,24.963118,24.968248,24.973516,24.979088,24.983599,24.988863,24.992739,24.998348,25.002865,25.00927,25.013937,25.019156,25.021795,25.025057,25.026815,25.028364,25.028791,25.029593,25.030155,25.030897,25.031092,25.030489,25.029367,25.029146,25.027117,25.023947,25.01807,25.013268,25.00468,24.997707,24.984653,24.973495,24.956,24.942396,24.92231,24.9067,24.886578,24.871012,24.851223,24.83472,24.818188,24.803413,24.788923,24.773495,24.760311,24.745314,24.734295,24.720812,24.711231,24.700356,24.694633,24.684927,24.67721,24.661299,24.64739,24.643929,24.64676,24.631407,24.599161,24.975203,24.52376,22.519575,19.011992,14.90427,11.772571,11.433574,11.7074175,11.672852,11.632583
14.833854,21.396973,25.264463,24.45114,24.357143,24.389534,24.426634,24.433542,24.454367,24.470804,24.482815,24.492987,24.507183,24.524614,24.538132,24.557968,24.57578,24.602629,24.62382,24.653793,24.674795,24.705727,24.728008,24.755487,24.772255,24.796116,24.813435,24.833616,24.847692,24.863321,24.874866,24.885738,24.89314,24.897268,24.900219,24.902897,24.906174,24.908476,24.91253,24.91605,24.921625,24.925884,24.932205,24.936838,24.942808,24.946928,24.952919,24.958027,24.964876,24.97083,24.976484,24.981522,24.98674,24.992298,24.996807,25.00207,25.005945,25.011505,25.015955,25.022224,25.026783,25.03178,25.034222,25.037224,25.03882,25.040234,25.040642,25.041464,25.042122,25.04301,25.043367,25.042894,25.041895,25.041796,25.039873,25.036736,25.030933,25.026213,25.017782,25.010948,24.99805,24.986979,24.969618,24.956123,24.936079,24.920433,24.900265,24.884624,24.864706,24.848028,24.831268,24.816198,24.801405,24.785587,24.772028,24.756575,24.745235,24.731312,24.721373,24.710133,24.70425,24.694414,24.686676,24.67093,24.65719,24.652683,24.65405,24.638613,24.60582,24.985598,24.520082,22.43346,18.903982,14.928621,11.934029,11.608123,11.872116,11.837571,11.798045
14.923008,21.422327,25.254206,24.451536,24.360384,24.392776,24.430109,24.43728,24.45838,24.475084,24.487488,24.498072,24.5126,24.530409,24.544285,24.564547,24.582666,24.609854,24.631247,24.661545,24.682816,24.714108,24.736633,24.76443,24.781408,24.805565,24.823082,24.843424,24.857521,24.87312,24.88455,24.895311,24.902569,24.90655,24.909353,24.91193,24.915138,24.917435,24.921473,24.92496,24.93047,24.93467,24.940886,24.94543,24.95123,24.955193,24.961014,24.966013,24.972736,24.978607,24.98417,24.989147,24.994316,24.999846,25.004354,25.009623,25.013506,25.019033,25.023426,25.029602,25.03409,25.038929,25.041218,25.044035,25.045513,25.046843,25.047253,25.048136,25.048904,25.049953,25.050476,25.050148,25.049273,25.049292,25.047466,25.044376,25.03864,25.033987,25.025675,25.018938,25.006166,24.99516,24.97791,24.964487,24.944489,24.92883,24.908657,24.893007,24.873047,24.856297,24.839434,24.824215,24.809263,24.79322,24.779444,24.76373,24.752201,24.738031,24.727879,24.716457,24.71052,24.700666,24.692959,24.67741,24.663857,24.658714,24.659117,24.643717,24.610556,24.991985,24.51704,22.377329,18.836779,14.953723,12.053538,11.736487,11.993408,11.958799,11.919694
15.044108,21.457724,25.241928,24.453903,24.366587,24.398764,24.436304,24.443798,24.465147,24.482075,24.494854,24.505861,24.520754,24.538988,24.553288,24.574049,24.592531,24.620155,24.641819,24.672577,24.694231,24.726051,24.748936,24.777218,24.794525,24.819126,24.836926,24.857489,24.87161,24.887148,24.898407,24.908995,24.916033,24.919807,24.92239,24.924805,24.927883,24.930145,24.934116,24.93753,24.9429,24.946972,24.953,24.957397,24.962925,24.966648,24.972204,24.977034,24.983578,24.989336,24.994793,24.999714,25.004854,25.010397,25.014946,25.020256,25.02418,25.029688,25.034018,25.040056,25.044424,25.049019,25.05108,25.05361,25.05491,25.05607,25.056444,25.057352,25.05824,25.059475,25.0602,25.060032,25.059313,25.059492,25.05781,25.05478,25.049133,25.04458,25.036451,25.029886,25.017328,25.006449,24.989407,24.976145,24.956282,24.940645,24.920515,24.90487,24.884865,24.868006,24.850998,24.835564,24.820366,24.803984,24.789886,24.773792,24.762009,24.747478,24.737013,24.725328,24.719334,24.709476,24.701822,24.686584,24.673302,24.667034,24.665789,24.650356,24.61671,25.00167,24.512104,22.287973,18.725924,14.980544,12.222465,11.918695,12.164985,12.130172,12.091642
15.127454,21.482885,25.234768,24.456804,24.372057,24.403967,24.441593,24.449306,24.470772,24.48777,24.50071,24.511929,24.527008,24.545492,24.560032,24.581095,24.599798,24.627705,24.649565,24.680655,24.70259,24.73481,24.757975,24.786642,24.80421,24.829155,24.847172,24.867899,24.882032,24.897524,24.908655,24.919106,24.925978,24.9296,24.932016,24.934292,24.937246,24.939465,24.943354,24.94669,24.951914,24.955866,24.961725,24.966003,24.971315,24.974852,24.980198,24.9849,24.991304,24.996986,25.002369,25.00727,25.012419,25.018011,25.022608,25.027975,25.031946,25.037457,25.04176,25.0477,25.05197,25.056372,25.058266,25.06058,25.061743,25.062761,25.063076,25.063969,25.064922,25.06626,25.0671,25.06702,25.06639,25.06668,25.0651,25.062105,25.056522,25.052036,25.04405,25.03762,25.02524,25.014473,24.997622,24.984512,24.964783,24.949198,24.929127,24.913485,24.893452,24.876509,24.85939,24.843786,24.828382,24.811733,24.797386,24.781006,24.769033,24.75424,24.743532,24.731657,24.725632,24.715788,24.708183,24.693178,24.68009,24.672867,24.670254,24.654728,24.620764,25.00903,24.508251,22.21804,18.6368,14.993631,12.341941,12.04816,12.286585,12.251591,12.213365
15.235809,21.515865,25.22621,24.461994,24.38079,24.412111,24.449709,24.45762,24.479069,24.496014,24.509047,24.520468,24.535723,24.554468,24.56929,24.590717,24.609697,24.637949,24.660036,24.691528,24.713808,24.746504,24.769985,24.799097,24.81697,24.842318,24.860586,24.881495,24.89563,24.911062,24.92206,24.932375,24.939095,24.94259,24.944868,24.947037,24.949896,24.952078,24.955885,24.959135,24.964178,24.967958,24.973574,24.977682,24.982721,24.986036,24.991123,24.995663,25.001926,25.007559,25.012915,25.017849,25.023052,25.02875,25.033455,25.03893,25.042963,25.04847,25.052715,25.058502,25.062622,25.06673,25.068357,25.07033,25.07127,25.072021,25.072184,25.072956,25.073906,25.075304,25.07625,25.076233,25.075682,25.076092,25.074646,25.071722,25.066256,25.061872,25.054092,25.047852,25.035725,25.025114,25.008528,24.995628,24.976105,24.960604,24.940634,24.925035,24.90502,24.888037,24.870857,24.855122,24.839537,24.82262,24.808033,24.791332,24.779133,24.763964,24.752893,24.740686,24.734554,24.724638,24.71704,24.702318,24.68949,24.680737,24.675983,24.660215,24.625774,25.020866,24.502033,22.101463,18.48317,14.999263,12.514808,12.235851,12.461229,12.425362,12.389429
15.305617,21.5375,25.221552,24.466692,24.38791,24.418642,24.456095,24.464045,24.485344,24.502125,24.51513,24.52661,24.541914,24.560781,24.575758,24.597399,24.616543,24.644997,24.667208,24.698933,24.721424,24.754395,24.778046,24.807407,24.82546,24.85104,24.869452,24.890453,24.904581,24.919983,24.93092,24.94118,24.947857,24.951317,24.953571,24.955723,24.95856,24.960733,24.964497,24.967705,24.972624,24.976276,24.981709,24.98569,24.99055,24.993734,24.998657,25.003092,25.009289,25.014925,25.020308,25.025312,25.030588,25.036379,25.041187,25.046753,25.050835,25.05633,25.060524,25.066189,25.0702,25.074083,25.075504,25.077208,25.077967,25.078482,25.078491,25.079103,25.079979,25.081352,25.082329,25.082308,25.08178,25.082249,25.080893,25.07803,25.07266,25.068354,25.060719,25.054611,25.042658,25.032158,25.015757,25.003002,24.983627,24.968195,24.94831,24.932758,24.912798,24.895842,24.878685,24.86293,24.84729,24.83026,24.81557,24.798706,24.786375,24.770939,24.75959,24.747112,24.740862,24.730833,24.723198,24.708643,24.695988,24.686008,24.67957,24.66354,24.628733,25.030346,24.496998,22.004978,18.352688,14.993248,12.640537,12.372675,12.587327,12.550424,12.517312
15.399414,21.568123,25.217604,24.47498,24.399258,24.42909,24.466085,24.473871,24.494925,24.511599,24.52463,24.536272,24.551704,24.570782,24.586002,24.60796,24.627333,24.656061,24.678432,24.71048,24.733274,24.766651,24.790564,24.820322,24.838673,24.864647,24.883322,24.904537,24.918718,24.934162,24.945082,24.955326,24.96197,24.96541,24.96763,24.969742,24.972515,24.974638,24.978285,24.981386,24.986069,24.98949,24.994606,24.998363,25.002903,25.00586,25.010485,25.014723,25.020746,25.026321,25.031673,25.036703,25.042,25.047848,25.052738,25.058374,25.062492,25.06795,25.072071,25.077583,25.081463,25.085083,25.086271,25.08766,25.088203,25.088427,25.088243,25.088655,25.089437,25.090769,25.091764,25.091732,25.09122,25.091766,25.090508,25.087696,25.082405,25.078169,25.070658,25.064665,25.052847,25.042421,25.026157,25.013521,24.994232,24.978817,24.958958,24.94341,24.923454,24.906485,24.889309,24.873474,24.8577,24.840458,24.825575,24.80844,24.795897,24.780079,24.768345,24.755491,24.749104,24.738949,24.73127,24.71693,24.704473,24.692818,24.684072,24.667557,24.632116,25.043522,24.489695,21.866491,18.164185,14.980547,12.81441,12.56226,12.761684,12.723689,12.692325
15.468241,21.592098,25.216883,24.482851,24.409115,24.438156,24.474583,24.482075,24.502861,24.519463,24.532503,24.54425,24.559755,24.578966,24.594343,24.616507,24.636028,24.664932,24.687403,24.71967,24.742678,24.77635,24.800459,24.830524,24.849108,24.875395,24.894283,24.915682,24.929932,24.945442,24.956379,24.966639,24.973286,24.976742,24.978954,24.981035,24.983736,24.985794,24.989305,24.992287,24.996723,24.999928,25.004744,25.00829,25.012543,25.015295,25.019659,25.023722,25.029577,25.035072,25.04037,25.045383,25.050648,25.056488,25.061394,25.067038,25.071154,25.076561,25.080622,25.086018,25.089804,25.093248,25.094288,25.095469,25.09586,25.095875,25.095533,25.095785,25.096487,25.097755,25.098732,25.098667,25.098164,25.09875,25.097546,25.094763,25.089506,25.085312,25.077862,25.071918,25.060154,25.049746,25.03353,25.020937,25.00166,24.986217,24.966333,24.950768,24.930792,24.913795,24.896599,24.880701,24.864826,24.84743,24.832403,24.815075,24.80239,24.786316,24.774315,24.761219,24.754766,24.744553,24.736864,24.722694,24.710375,24.69743,24.686905,24.669884,24.63384,25.053936,24.48364,21.752176,18.006886,14.964659,12.949026,12.708979,12.89575,12.857324,12.82621
15.555591,21.623138,25.21641,24.492458,24.420763,24.448801,24.484488,24.491632,24.512012,24.528385,24.541235,24.55289,24.568306,24.587496,24.602896,24.625153,24.644764,24.673819,24.696394,24.728878,24.752098,24.786068,24.810392,24.840765,24.859568,24.886122,24.905163,24.926672,24.94092,24.95638,24.967228,24.977415,24.984015,24.987467,24.989643,24.991665,24.99425,24.99622,24.999535,25.002333,25.006416,25.009306,25.013708,25.016985,25.020891,25.02342,25.027514,25.03141,25.037115,25.042551,25.0478,25.052807,25.058065,25.0639,25.0688,25.07442,25.07851,25.083828,25.087793,25.093002,25.096632,25.099825,25.100664,25.10156,25.101742,25.10147,25.100935,25.100977,25.101566,25.10274,25.103682,25.103577,25.103085,25.103735,25.102633,25.099907,25.094767,25.090687,25.083424,25.077627,25.06605,25.055748,25.039717,25.027271,25.008133,24.992739,24.972918,24.957376,24.937435,24.920456,24.903286,24.887377,24.871439,24.853935,24.838827,24.821394,24.80864,24.792404,24.780195,24.766975,24.760551,24.750418,24.742815,24.728985,24.716917,24.702442,24.689726,24.67203,24.635223,25.06734,24.47592,21.602423,17.79942,14.940189,13.119024,12.89281,13.062229,13.024202,12.994203
15.631929,21.65126,25.216997,24.50088,24.430412,24.457558,24.492603,24.499516,24.519506,24.535582,24.548153,24.559603,24.57482,24.593868,24.609182,24.63141,24.651037,24.680143,24.702763,24.735357,24.758688,24.792831,24.817291,24.847845,24.866764,24.89345,24.912546,24.934084,24.948288,24.96365,24.97438,24.984486,24.991049,24.994507,24.996674,24.998652,25.001143,25.003038,25.00617,25.008791,25.01254,25.015137,25.019165,25.022203,25.025816,25.028168,25.032055,25.035835,25.041428,25.046808,25.052011,25.056997,25.062235,25.068037,25.07289,25.078444,25.082489,25.087711,25.091587,25.09663,25.10012,25.103104,25.103792,25.104452,25.104445,25.103922,25.103205,25.103058,25.103529,25.104586,25.105461,25.105297,25.104805,25.105486,25.104454,25.10177,25.096733,25.092758,25.085663,25.080004,25.06859,25.05839,25.04253,25.03022,25.011223,24.9959,24.976162,24.96068,24.940815,24.92391,24.906832,24.890999,24.8751,24.857628,24.842567,24.825188,24.812487,24.796268,24.784012,24.770838,24.764526,24.754566,24.747103,24.733624,24.721794,24.706059,24.691486,24.673067,24.635496,25.078173,24.468971,21.473621,17.62131,14.920066,13.266052,13.050462,13.204274,13.167444,13.138783
15.715992,21.682255,25.217613,24.509989,24.440834,24.46705,24.50155,24.508379,24.528051,24.543844,24.556221,24.567549,24.58262,24.601576,24.616877,24.639132,24.65879,24.687933,24.710546,24.7432,24.766613,24.80089,24.825455,24.856157,24.875181,24.902004,24.921183,24.942787,24.957,24.972322,24.983007,24.99311,24.999706,25.003231,25.005447,25.007427,25.009857,25.011692,25.01465,25.017094,25.020512,25.02282,25.026455,25.029236,25.032526,25.034681,25.038338,25.041977,25.047413,25.052692,25.057814,25.062742,25.06792,25.073648,25.078423,25.083897,25.087906,25.093058,25.096865,25.101786,25.105179,25.108004,25.108566,25.109016,25.108839,25.108065,25.107147,25.106781,25.107103,25.107994,25.108759,25.1085,25.107962,25.108637,25.107618,25.104937,25.099932,25.096008,25.088984,25.08337,25.072016,25.061842,25.04605,25.03381,25.01487,24.999573,24.979898,24.964489,24.944733,24.92796,24.911053,24.89539,24.879633,24.862293,24.84735,24.830086,24.817472,24.801285,24.78898,24.775803,24.769547,24.75969,24.752308,24.739117,24.72747,24.710276,24.69361,24.67427,24.635754,25.088747,24.461191,21.341125,17.440329,14.90542,13.426634,13.222435,13.360128,13.324691,13.2976885
15.808636,21.716846,25.218395,24.51898,24.45067,24.475927,24.50994,24.516844,24.536154,24.551548,24.56367,24.57485,24.589725,24.608555,24.623835,24.646124,24.665808,24.694971,24.717566,24.750246,24.773722,24.808092,24.832724,24.86352,24.882616,24.909517,24.92875,24.950396,24.964607,24.97989,24.990528,25.000631,25.007273,25.010878,25.01316,25.015156,25.017563,25.019377,25.022211,25.024513,25.02766,25.029732,25.033041,25.035591,25.03858,25.040537,25.043966,25.047468,25.052732,25.057886,25.062891,25.067732,25.072832,25.078463,25.08313,25.088491,25.092447,25.097517,25.101248,25.106031,25.1093,25.111942,25.112371,25.112589,25.11221,25.11115,25.11002,25.109423,25.109592,25.1103,25.110935,25.11058,25.109991,25.110641,25.109602,25.106878,25.101845,25.097935,25.090914,25.085289,25.073914,25.06372,25.04793,25.035711,25.016775,25.001474,24.981836,24.966497,24.946856,24.930227,24.913511,24.898062,24.882507,24.8654,24.850658,24.833635,24.82121,24.805227,24.793037,24.780045,24.773945,24.764318,24.757097,24.744263,24.732824,24.714302,24.695662,24.675268,24.635653,25.096498,24.453379,21.228024,17.291214,14.908666,13.588117,13.394098,13.517151,13.483316,13.458166
15.899656,21.750526,25.218407,24.526548,24.458704,24.482954,24.51646,24.523493,24.542366,24.557245,24.569023,24.579977,24.594597,24.613255,24.628487,24.6508,24.670528,24.699745,24.72237,24.755146,24.77873,24.813236,24.83795,24.868856,24.888025,24.914997,24.93425,24.955904,24.970087,24.985285,24.995836,25.005884,25.012516,25.016146,25.018454,25.020441,25.022827,25.02464,25.027403,25.02961,25.032555,25.034454,25.037514,25.039888,25.042624,25.044397,25.047625,25.051004,25.056108,25.061153,25.066055,25.070822,25.075863,25.081423,25.085987,25.09123,25.095118,25.100065,25.10369,25.108257,25.111336,25.113712,25.113962,25.11387,25.11324,25.111856,25.110504,25.109686,25.10973,25.11028,25.110807,25.110374,25.10976,25.110405,25.109348,25.106573,25.101511,25.097614,25.090607,25.08498,25.073582,25.063374,25.047575,25.03537,25.016415,25.001087,24.981441,24.966125,24.946526,24.92997,24.91335,24.89804,24.882624,24.86572,24.851166,24.834435,24.822266,24.806654,24.79474,24.782175,24.776407,24.767227,24.760305,24.747986,24.736862,24.71732,24.697018,24.675705,24.635109,25.101566,24.44627,21.138268,17.177223,14.924095,13.736355,13.551057,13.661852,13.629394,13.605895
16.019674,21.796286,25.220007,24.536821,24.46918,24.492397,24.525301,24.532452,24.550745,24.564955,24.576292,24.586967,24.601254,24.619684,24.634863,24.657204,24.676956,24.706203,24.72882,24.761652,24.785318,24.819912,24.844662,24.875635,24.89485,24.92184,24.941074,24.962694,24.976816,24.9919,25.002329,25.012291,25.018896,25.022543,25.02488,25.026865,25.029253,25.0311,25.033829,25.03596,25.03874,25.040493,25.043324,25.045519,25.047981,25.04954,25.052532,25.05576,25.060665,25.065561,25.070314,25.07497,25.079943,25.085413,25.08986,25.094957,25.098763,25.10357,25.107077,25.111408,25.114262,25.116327,25.116371,25.115927,25.115,25.113253,25.11166,25.110613,25.110548,25.110954,25.11141,25.110945,25.11034,25.111006,25.109943,25.107113,25.102007,25.098122,25.091118,25.08548,25.074078,25.063866,25.048103,25.035946,25.017036,25.00173,24.982141,24.96689,24.947393,24.93096,24.914495,24.89938,24.88416,24.867514,24.85319,24.836794,24.824913,24.809715,24.798105,24.78601,24.780596,24.771902,24.765299,24.753494,24.742662,24.722073,24.700045,24.67752,24.635498,25.105896,24.438597,21.051788,17.07382,14.958823,13.910358,13.733993,13.83159,13.800655,13.779053
16.120611,21.835373,25.22223,24.546028,24.478573,24.501123,24.533625,24.540884,24.558743,24.572424,24.583427,24.593884,24.60789,24.626127,24.641254,24.663595,24.683342,24.712559,24.735123,24.767921,24.791603,24.82619,24.850924,24.881884,24.901098,24.928053,24.947235,24.968794,24.982853,24.997822,25.008148,25.018038,25.024622,25.028288,25.030663,25.032663,25.035076,25.036955,25.039673,25.041758,25.044424,25.046057,25.048704,25.05075,25.052982,25.054358,25.057146,25.060232,25.064962,25.069717,25.074327,25.07888,25.083788,25.089182,25.093534,25.098526,25.102276,25.106998,25.110441,25.11462,25.117332,25.119198,25.119102,25.118422,25.117304,25.115309,25.113554,25.112364,25.112246,25.11259,25.113028,25.112587,25.112024,25.112732,25.111681,25.108824,25.10369,25.0998,25.092798,25.087154,25.075764,25.065575,25.049883,25.037802,25.018993,25.003767,24.984303,24.969172,24.94983,24.933554,24.917301,24.902407,24.88739,24.870966,24.856827,24.840662,24.828976,24.814005,24.80254,24.790674,24.785446,24.777006,24.770586,24.759071,24.748377,24.726927,24.703533,24.679949,24.636604,25.10996,24.43274,20.982206,16.99029,14.986209,14.049504,13.879968,13.966623,13.936812,13.916676
16.265282,21.893898,25.228632,24.560848,24.493162,24.515095,24.546743,24.553713,24.570866,24.58396,24.594595,24.604862,24.618605,24.63669,24.651857,24.674267,24.694021,24.72318,24.745655,24.778381,24.802063,24.836609,24.861282,24.89222,24.91145,24.93839,24.957539,24.979065,24.993092,25.00799,25.01825,25.028097,25.034678,25.038364,25.04078,25.042805,25.045244,25.047167,25.049889,25.05193,25.054516,25.056074,25.058567,25.060469,25.062475,25.063667,25.066235,25.069155,25.07368,25.078268,25.082714,25.087135,25.091951,25.09725,25.101492,25.106356,25.110031,25.114643,25.11801,25.122028,25.124588,25.12623,25.125977,25.12501,25.123655,25.121353,25.11939,25.118004,25.117792,25.118032,25.118439,25.118025,25.117527,25.11828,25.117249,25.11436,25.109203,25.10532,25.09834,25.092709,25.081371,25.071241,25.055689,25.043741,25.025118,25.01003,24.990751,24.975769,24.956635,24.940563,24.924562,24.909918,24.895134,24.878937,24.864988,24.849022,24.837475,24.82264,24.811224,24.79945,24.794312,24.785986,24.779634,24.768236,24.757534,24.735142,24.710306,24.685244,24.639862,25.1128,24.426247,20.921906,16.930447,15.048909,14.231617,14.069558,14.144502,14.116225,14.097992
16.376394,21.940388,25.235523,24.573294,24.505125,24.526766,24.55753,24.563961,24.580503,24.593271,24.603699,24.613928,24.627565,24.645645,24.660933,24.683466,24.703249,24.732384,24.754799,24.787481,24.811174,24.84569,24.870321,24.90126,24.920534,24.947525,24.966702,24.98827,25.002323,25.01724,25.027514,25.037378,25.04397,25.047672,25.050098,25.052134,25.054594,25.056534,25.059252,25.061281,25.063848,25.065409,25.067848,25.069689,25.07158,25.072678,25.075111,25.077929,25.082315,25.08679,25.091127,25.095469,25.100216,25.105442,25.109613,25.114397,25.118017,25.12256,25.125877,25.129805,25.132286,25.133797,25.133436,25.132277,25.130747,25.12822,25.126097,25.124546,25.12423,25.124357,25.124714,25.124304,25.123846,25.124626,25.123608,25.120707,25.115547,25.111689,25.10474,25.099127,25.08785,25.077782,25.062347,25.05051,25.032034,25.017052,24.997894,24.983007,24.964006,24.948067,24.932215,24.917715,24.903057,24.886982,24.87313,24.857231,24.845703,24.83084,24.81937,24.807516,24.802326,24.793911,24.787489,24.77598,24.765148,24.742136,24.716421,24.690205,24.64314,25.11302,24.4219,20.8969,16.917503,15.110959,14.363873,14.206636,14.274937,14.247846,14.2309675
16.541548,22.009691,25.245989,24.59165,24.522612,24.543837,24.573282,24.578897,24.594511,24.606747,24.616802,24.626888,24.640314,24.658323,24.673702,24.696335,24.716108,24.745155,24.767473,24.80005,24.823704,24.858126,24.882662,24.913555,24.932837,24.959805,24.97895,25.000504,25.014547,25.029448,25.039701,25.049568,25.056185,25.059912,25.06239,25.064455,25.066957,25.068943,25.071686,25.073702,25.076252,25.077805,25.080187,25.081951,25.08372,25.084702,25.086994,25.089706,25.093971,25.098347,25.102575,25.106825,25.111498,25.116634,25.120708,25.125357,25.128859,25.133244,25.13645,25.140179,25.142488,25.143753,25.143211,25.141745,25.139975,25.13713,25.1348,25.133047,25.132626,25.132635,25.132938,25.132538,25.132124,25.132921,25.13189,25.128944,25.123747,25.11988,25.11296,25.107376,25.096195,25.086222,25.070976,25.05931,25.041073,25.02626,25.007284,24.99251,24.97368,24.957903,24.942219,24.927872,24.913342,24.897396,24.883667,24.867882,24.856422,24.841608,24.830149,24.818335,24.813198,24.804842,24.79845,24.786907,24.77595,24.752426,24.725893,24.698309,24.649067,25.112803,24.41821,20.882732,16.931618,15.216176,14.550341,14.397846,14.457592,14.432246,14.417505
16.663776,22.061018,25.253738,24.605055,24.535286,24.556204,24.584684,24.589706,24.604614,24.616417,24.62614,24.636051,24.64928,24.667181,24.68257,24.705215,24.72495,24.753923,24.77616,24.808641,24.832235,24.866568,24.891024,24.921844,24.941103,24.96799,24.987068,25.008554,25.022566,25.037403,25.047617,25.057467,25.0641,25.067862,25.070381,25.072485,25.07504,25.077072,25.079847,25.08186,25.084396,25.085934,25.088278,25.089996,25.091686,25.092598,25.09481,25.097475,25.101696,25.10604,25.110212,25.11441,25.119053,25.124142,25.128153,25.132689,25.136084,25.140316,25.143421,25.146963,25.149109,25.150137,25.149437,25.14773,25.145771,25.142698,25.140228,25.13835,25.137886,25.13784,25.138123,25.13773,25.137335,25.138132,25.137072,25.13407,25.128817,25.124924,25.118002,25.112434,25.101315,25.091412,25.07631,25.06478,25.046726,25.03205,25.013199,24.998493,24.97977,24.96408,24.948486,24.93421,24.91973,24.903843,24.890186,24.874506,24.863129,24.848425,24.837048,24.825388,24.820398,24.812239,24.805983,24.794521,24.783533,24.759863,24.732992,24.704613,24.653976,25.112282,24.417091,20.88566,16.96151,15.301623,14.6823845,14.531855,14.585944,14.5618925,14.548849
16.837938,22.133818,25.264511,24.624266,24.553661,24.574137,24.601263,24.605457,24.61941,24.630642,24.639915,24.649588,24.66253,24.680243,24.695599,24.718155,24.73771,24.766386,24.788378,24.820541,24.843943,24.877974,24.902206,24.932798,24.951958,24.97865,24.997572,25.0189,25.03282,25.047546,25.057693,25.067492,25.074133,25.07793,25.080515,25.082663,25.085276,25.087353,25.090155,25.09216,25.094685,25.096212,25.098537,25.10024,25.10192,25.102825,25.10505,25.107737,25.111992,25.116352,25.12051,25.124636,25.129198,25.134136,25.138,25.142286,25.145445,25.14938,25.152288,25.155556,25.157507,25.15828,25.157415,25.155493,25.153389,25.15014,25.147572,25.145603,25.145107,25.145014,25.145275,25.1449,25.144527,25.145325,25.144241,25.141197,25.135923,25.132046,25.125202,25.119717,25.10876,25.099,25.084167,25.072865,25.055124,25.040665,25.02203,25.007448,24.98893,24.973429,24.958038,24.94395,24.929634,24.913933,24.900455,24.884972,24.873734,24.859148,24.847813,24.836243,24.83135,24.823318,24.817152,24.805668,24.794579,24.771156,24.744432,24.715239,24.662727,25.114265,24.418196,20.889385,17.000938,15.42115,14.870001,14.722629,14.768424,14.745596,14.73455
16.963055,22.185875,25.272047,24.638111,24.567049,24.587194,24.613384,24.61702,24.630331,24.641188,24.650173,24.659683,24.672426,24.68997,24.705282,24.727694,24.747038,24.775368,24.79709,24.828903,24.852081,24.885786,24.909784,24.940123,24.959158,24.985651,25.004416,25.025587,25.03941,25.05404,25.064133,25.073885,25.080517,25.08434,25.08697,25.089151,25.091791,25.093885,25.096691,25.098686,25.101202,25.10273,25.105064,25.106785,25.108517,25.10949,25.111807,25.114574,25.118923,25.123337,25.127523,25.131601,25.13608,25.140858,25.14457,25.148619,25.151552,25.155214,25.157944,25.16101,25.162844,25.163485,25.162552,25.160555,25.15843,25.155172,25.152601,25.150635,25.150137,25.15003,25.150286,25.14992,25.149555,25.150347,25.149254,25.146194,25.140947,25.137112,25.130367,25.124979,25.114191,25.10456,25.089954,25.078846,25.061356,25.04707,25.028612,25.014143,24.9958,24.980474,24.965288,24.951399,24.93726,24.92175,24.908463,24.89316,24.882032,24.867512,24.856157,24.844576,24.839682,24.831656,24.825487,24.813908,24.802713,24.779802,24.753653,24.72412,24.670366,25.117641,24.421202,20.893505,17.029547,15.506565,15.003938,14.85891,14.898784,14.876628,14.866799
17.133415,22.256742,25.28217,24.65674,24.584936,24.60461,24.629763,24.632973,24.645618,24.656055,24.664776,24.674187,24.686775,24.704208,24.719526,24.741823,24.760942,24.78889,24.810305,24.841703,24.864605,24.897898,24.921606,24.951649,24.970547,24.996807,25.015392,25.036402,25.050146,25.064692,25.074749,25.084476,25.091135,25.095028,25.097738,25.099964,25.102629,25.10473,25.107502,25.109436,25.111858,25.113316,25.11557,25.117247,25.118963,25.119963,25.12233,25.125153,25.12956,25.133991,25.13816,25.142143,25.146484,25.15104,25.154543,25.158289,25.16096,25.164288,25.166798,25.169596,25.171265,25.171717,25.170677,25.168575,25.166409,25.163109,25.160522,25.15854,25.15802,25.157856,25.158047,25.157625,25.157198,25.157911,25.156723,25.15358,25.148273,25.144426,25.137724,25.132393,25.121721,25.112194,25.097794,25.086878,25.069666,25.055592,25.037357,25.023046,25.004963,24.989906,24.975012,24.961403,24.947527,24.932293,24.91926,24.904207,24.893238,24.878824,24.867472,24.855915,24.85106,24.843117,24.837029,24.825413,24.81415,24.791973,24.766613,24.736567,24.681303,25.123621,24.428022,20.904007,17.074152,15.626267,15.187462,15.045394,15.078966,15.060939,15.053732
17.262129,22.30984,25.28923,24.670507,24.59824,24.617537,24.642147,24.645355,24.65771,24.667923,24.676577,24.686018,24.698593,24.716024,24.7314,24.753654,24.772638,24.800335,24.821533,24.852633,24.875324,24.908321,24.931822,24.961657,24.980469,25.006569,25.02504,25.045958,25.059675,25.074188,25.084244,25.09399,25.100702,25.104683,25.107481,25.109743,25.11242,25.11452,25.117228,25.119085,25.121374,25.122725,25.124851,25.126457,25.12811,25.129097,25.13147,25.134306,25.13872,25.143137,25.147264,25.151155,25.155375,25.159754,25.163092,25.16662,25.169115,25.17222,25.17457,25.177187,25.17875,25.179083,25.177992,25.175852,25.173689,25.170395,25.167831,25.165861,25.165344,25.16514,25.165253,25.164764,25.164246,25.164865,25.16356,25.160316,25.154924,25.151035,25.144312,25.13898,25.128338,25.118843,25.104544,25.093735,25.076696,25.06277,25.044704,25.030525,25.012653,24.997812,24.983152,24.969765,24.956093,24.941072,24.928236,24.913376,24.90253,24.888206,24.876867,24.865347,24.860533,24.852686,24.846695,24.835098,24.82381,24.802216,24.777464,24.74707,24.690783,25.129314,24.435087,20.916962,17.114763,15.721396,15.328142,15.187808,15.217896,15.205648,15.201221
17.42195,22.37444,25.296473,24.687056,24.61471,24.63352,24.657711,24.66117,24.673323,24.683308,24.691944,24.701466,24.714043,24.731485,24.746948,24.769175,24.788013,24.815407,24.836332,24.867052,24.88948,24.922142,24.94543,24.975039,24.993744,25.01966,25.038006,25.058844,25.072554,25.087034,25.097094,25.106888,25.11372,25.11787,25.12084,25.123182,25.1259,25.128023,25.130672,25.13244,25.134556,25.135754,25.13772,25.139244,25.140812,25.14177,25.144133,25.14698,25.151405,25.155811,25.159883,25.16367,25.167774,25.171978,25.175148,25.178442,25.180729,25.183598,25.185797,25.188253,25.189726,25.190012,25.188944,25.186886,25.184826,25.181675,25.179228,25.1774,25.176975,25.176813,25.176907,25.176394,25.175821,25.176388,25.175001,25.17167,25.166199,25.16228,25.15555,25.15024,25.13965,25.130213,25.116064,25.105415,25.088625,25.0749,25.057056,25.04303,25.025394,25.01077,24.996342,24.98317,24.96968,24.954868,24.942242,24.927607,24.916916,24.902714,24.891396,24.87994,24.875204,24.867458,24.861538,24.849932,24.83858,24.81731,24.792849,24.762053,24.70433,25.135246,24.441263,20.935144,17.172213,15.846069,15.507266,15.367872,15.393441,15.389636,15.389114
17.554913,22.426641,25.300701,24.700201,24.628393,24.646793,24.670887,24.67481,24.687017,24.696943,24.705715,24.715416,24.728085,24.745604,24.761183,24.78342,24.802168,24.82931,24.849995,24.880386,24.902588,24.93498,24.958118,24.987556,25.006178,25.031965,25.050217,25.071009,25.084726,25.09917,25.109222,25.11905,25.125994,25.130299,25.133417,25.135822,25.138565,25.140694,25.143282,25.144964,25.146914,25.147968,25.149782,25.151241,25.152746,25.153683,25.15604,25.158905,25.16334,25.167728,25.171751,25.175446,25.179451,25.183512,25.186546,25.189651,25.191778,25.194471,25.196564,25.198923,25.20036,25.200674,25.199684,25.197786,25.195877,25.192947,25.19067,25.189058,25.188774,25.18872,25.188856,25.188377,25.187815,25.18839,25.186995,25.183641,25.178148,25.174232,25.167532,25.162262,25.151747,25.14237,25.128368,25.117867,25.101305,25.087763,25.070127,25.056248,25.0388,25.024332,25.010069,24.997034,24.98365,24.968958,24.956459,24.941967,24.931381,24.917244,24.905922,24.894487,24.889805,24.882122,24.876234,24.864594,24.853165,24.832018,24.80763,24.776674,24.71769,25.139732,24.445301,20.955652,17.231411,15.959834,15.663105,15.523318,15.545355,15.550329,15.553731
17.696053,22.481724,25.304914,24.71436,24.643385,24.661348,24.685297,24.68965,24.701962,24.711937,24.720955,24.730932,24.743767,24.761414,24.777143,24.799398,24.818022,24.844875,24.865295,24.895317,24.91727,24.949352,24.972303,25.001549,25.020086,25.045723,25.063862,25.084566,25.098251,25.112623,25.122625,25.13242,25.139393,25.143787,25.146984,25.1494,25.152103,25.154186,25.156668,25.158247,25.160032,25.160946,25.162624,25.164034,25.165531,25.166515,25.168941,25.171867,25.176353,25.180754,25.184761,25.188366,25.192228,25.196074,25.198912,25.201763,25.20369,25.206135,25.208052,25.21025,25.211628,25.211927,25.210978,25.20918,25.20739,25.204657,25.202557,25.201136,25.20097,25.201023,25.201216,25.2008,25.200281,25.200884,25.199516,25.19619,25.190746,25.186867,25.180246,25.175045,25.164646,25.155361,25.141535,25.13119,25.114866,25.101517,25.084106,25.070387,25.053135,25.038836,25.024763,25.011887,24.998627,24.984043,24.971653,24.957266,24.946768,24.932634,24.921232,24.909733,24.90505,24.89739,24.89154,24.87984,24.868322,24.847576,24.823626,24.792763,24.73249,25.144968,24.44979,20.976906,17.294231,16.08341,15.833665,15.692772,15.710807,15.726493,15.7348175
17.833395,22.533398,25.306597,24.72694,24.657442,24.675045,24.69897,24.7038,24.716373,24.726562,24.735971,24.746344,24.75944,24.777287,24.793228,24.815536,24.834063,24.86063,24.880762,24.910393,24.932081,24.963846,24.986616,25.015675,25.034136,25.059645,25.077705,25.09834,25.111988,25.12627,25.136179,25.145905,25.152853,25.157282,25.160496,25.16287,25.165491,25.167511,25.16988,25.171354,25.172976,25.173756,25.175308,25.176674,25.178162,25.179176,25.181637,25.184582,25.189064,25.193417,25.197357,25.200834,25.204523,25.208134,25.210775,25.213408,25.21518,25.217438,25.219217,25.221312,25.222666,25.223011,25.222141,25.220488,25.218836,25.216335,25.21445,25.213264,25.21326,25.21347,25.213776,25.213472,25.213058,25.213741,25.212479,25.209253,25.20394,25.20015,25.193674,25.188585,25.17838,25.16924,25.155655,25.145498,25.129478,25.116385,25.099281,25.085787,25.068792,25.054682,25.040804,25.028067,25.014894,25.00035,24.987986,24.973595,24.963087,24.948866,24.93733,24.925703,24.920973,24.913301,24.90748,24.895699,24.884079,24.863834,24.840464,24.809816,24.748276,25.149073,24.454817,21.012926,17.381176,16.220934,16.006218,15.8647375,15.879445,15.90299,15.915134
17.959942,22.579905,25.306477,24.737099,24.66906,24.68634,24.710314,24.71564,24.728516,24.73896,24.7488,24.75959,24.77298,24.791063,24.807247,24.829659,24.84813,24.874447,24.894295,24.923534,24.94496,24.976418,24.999022,25.027914,25.046312,25.071747,25.08978,25.110426,25.1241,25.138334,25.148186,25.157887,25.16485,25.169336,25.172577,25.174913,25.177473,25.179468,25.181747,25.183126,25.184576,25.185223,25.186638,25.187937,25.189323,25.190268,25.192635,25.195498,25.199842,25.20405,25.20782,25.211117,25.214622,25.218044,25.220537,25.223038,25.22475,25.226963,25.22871,25.230825,25.232231,25.232733,25.232033,25.230627,25.229172,25.226973,25.225338,25.224459,25.224682,25.225113,25.225573,25.225422,25.225147,25.225956,25.224838,25.22174,25.216581,25.212893,25.206577,25.201612,25.191607,25.182632,25.169306,25.159363,25.143688,25.130888,25.114166,25.100958,25.084286,25.070393,25.056719,25.044094,25.030996,25.016457,25.004068,24.989605,24.97903,24.96468,24.95302,24.941277,24.936506,24.928831,24.923044,24.91119,24.899487,24.879677,24.85679,24.8262,24.763445,25.151825,24.46056,21.061527,17.485445,16.360407,16.164948,16.023455,16.035616,16.062767,16.07734
18.105238,22.63131,25.304115,24.748148,24.682812,24.699923,24.724098,24.729937,24.74321,24.753983,24.764307,24.775543,24.789234,24.807552,24.823986,24.84649,24.864891,24.890917,24.910444,24.93925,24.960388,24.991524,25.013964,25.042673,25.06098,25.08631,25.104277,25.124882,25.138508,25.15259,25.16227,25.171846,25.178738,25.183212,25.186415,25.188654,25.19111,25.193073,25.19527,25.196556,25.197859,25.19838,25.199696,25.200974,25.202305,25.203201,25.205494,25.20828,25.212488,25.216534,25.220108,25.223196,25.226496,25.229717,25.232056,25.234436,25.236101,25.238276,25.239979,25.242096,25.243536,25.244167,25.24361,25.242409,25.241116,25.23918,25.237774,25.23718,25.23762,25.238258,25.23886,25.238848,25.238703,25.239624,25.238667,25.235716,25.23075,25.227186,25.22109,25.216312,25.20663,25.19791,25.18498,25.175344,25.160158,25.14775,25.131535,25.118685,25.102402,25.088745,25.07528,25.062735,25.049665,25.035057,25.022577,25.007952,24.997234,24.982685,24.97087,24.958979,24.954155,24.946445,24.940672,24.928698,24.91686,24.897543,24.875229,24.844646,24.78051,25.153063,24.467358,21.130976,17.628115,16.534996,16.352629,16.214947,16.22546,16.250603,16.264154
18.220457,22.671246,25.301497,24.757055,24.694473,24.711584,24.736,24.742176,24.755737,24.766724,24.777351,24.78884,24.80267,24.821083,24.83765,24.86017,24.878473,24.904255,24.923552,24.952047,24.97298,25.003899,25.026243,25.054817,25.073046,25.098244,25.11611,25.13659,25.150099,25.163958,25.173405,25.182789,25.189543,25.193945,25.197062,25.199194,25.201542,25.20346,25.205595,25.206825,25.208042,25.208488,25.209812,25.211182,25.212696,25.213774,25.21625,25.219124,25.223354,25.2273,25.230715,25.233572,25.236618,25.239614,25.24184,25.244143,25.245752,25.247849,25.249474,25.251524,25.252935,25.253572,25.253054,25.25191,25.250666,25.248838,25.247538,25.24707,25.247599,25.248322,25.248981,25.249016,25.248919,25.249895,25.249025,25.246174,25.241348,25.23788,25.231983,25.227386,25.218014,25.209543,25.19698,25.187607,25.172832,25.160742,25.144903,25.132301,25.11627,25.102747,25.08938,25.076841,25.063734,25.049023,25.036444,25.02166,25.010807,24.996084,24.984135,24.972107,24.967226,24.959454,24.95365,24.941532,24.929556,24.910604,24.888758,24.85818,24.793028,25.153082,24.47243,21.187826,17.744562,16.675531,16.503271,16.371809,16.381933,16.402067,16.412064
18.365627,22.720783,25.297667,24.768982,24.710705,24.727991,24.752771,24.759258,24.7732,24.784533,24.79561,24.807482,24.821552,24.840137,24.85689,24.87945,24.897655,24.923151,24.942158,24.970272,24.990957,25.021591,25.043787,25.072163,25.090263,25.11527,25.132978,25.153265,25.166578,25.180107,25.189222,25.198318,25.204844,25.2091,25.212072,25.21403,25.216232,25.218107,25.2202,25.221397,25.222567,25.222982,25.22426,25.225592,25.226837,25.227581,25.229713,25.232393,25.236486,25.24045,25.24395,25.246954,25.250185,25.253222,25.255262,25.257307,25.258804,25.260735,25.262205,25.264076,25.265396,25.265928,25.265354,25.264133,25.262846,25.26104,25.259811,25.259418,25.260006,25.26079,25.261486,25.261534,25.261444,25.262419,25.261591,25.258816,25.254114,25.250725,25.245037,25.24065,25.231668,25.223526,25.211458,25.202457,25.188253,25.176617,25.161333,25.149113,25.13348,25.12019,25.10703,25.094563,25.08146,25.066658,25.053968,25.039013,25.028017,25.01312,25.00104,24.988909,24.984005,24.976221,24.970432,24.95817,24.946026,24.927555,24.906294,24.875668,24.809105,25.152332,24.478409,21.263477,17.899868,16.861828,16.702026,16.579199,16.588713,16.601196,16.605675
18.46832,22.755713,25.295015,24.777916,24.72299,24.740463,24.765522,24.772182,24.786419,24.798069,24.80956,24.821806,24.836136,24.854908,24.871841,24.894474,24.912636,24.937946,24.956745,24.98458,25.005085,25.035492,25.05755,25.08576,25.103758,25.128626,25.146233,25.16638,25.179556,25.192863,25.20175,25.210636,25.216995,25.221142,25.223995,25.225819,25.227919,25.229784,25.231867,25.233053,25.234264,25.234755,25.236002,25.2372,25.237783,25.237724,25.239027,25.241259,25.245056,25.249138,25.252985,25.256573,25.260511,25.263912,25.265673,25.267263,25.268593,25.270325,25.271639,25.273327,25.274544,25.274918,25.274235,25.272865,25.271479,25.269619,25.268412,25.268032,25.26864,25.269453,25.270164,25.270216,25.270103,25.271038,25.27019,25.267427,25.26276,25.25939,25.253796,25.249525,25.240778,25.23285,25.221119,25.212381,25.198597,25.187302,25.172464,25.160566,25.145287,25.132227,25.119291,25.10694,25.09391,25.079098,25.06636,25.051325,25.040274,25.025307,25.013174,25.001034,24.996162,24.98845,24.98273,24.970427,24.958195,24.940105,24.919264,24.888538,24.820913,25.152163,24.483294,21.318573,18.012623,16.997845,16.847525,16.730267,16.738901,16.746296,16.747046
18.606728,22.80207,25.290953,24.79059,24.740938,24.758816,24.784273,24.790989,24.805555,24.81759,24.829538,24.842175,24.85677,24.875734,24.892857,24.915554,24.933662,24.95874,24.977283,25.004774,25.025051,25.05518,25.077072,25.105036,25.122864,25.147497,25.16492,25.18481,25.197737,25.210665,25.219177,25.227728,25.233816,25.237768,25.240425,25.242054,25.244005,25.245852,25.247944,25.249178,25.250254,25.250525,25.251266,25.251963,25.251698,25.25092,25.251396,25.253178,25.256826,25.261086,25.26504,25.26873,25.272684,25.27624,25.278372,25.280327,25.281815,25.283491,25.284584,25.28603,25.287151,25.287386,25.28661,25.28511,25.283642,25.281757,25.28059,25.280235,25.280855,25.281694,25.282412,25.282438,25.282276,25.28315,25.282284,25.279554,25.274977,25.271666,25.266281,25.26223,25.25391,25.246353,25.235205,25.226913,25.213795,25.203024,25.188858,25.177444,25.162682,25.149954,25.137312,25.125103,25.11216,25.097303,25.084469,25.06927,25.058077,25.042965,25.03075,25.018564,25.013708,25.006027,25.000343,24.987894,24.975466,24.957785,24.93741,24.906761,24.837292,25.148397,24.484047,21.39185,18.170057,17.188513,17.051477,16.942266,16.949852,16.9502,16.945776
18.701033,22.833239,25.287899,24.799604,24.754,24.77225,24.797993,24.804642,24.819378,24.831627,24.8438,24.856615,24.871326,24.89037,24.907581,24.930302,24.94837,24.973305,24.991692,25.018967,25.039106,25.069061,25.09085,25.118645,25.136333,25.160782,25.178055,25.197731,25.21044,25.223053,25.231262,25.23955,25.245424,25.249208,25.251707,25.253181,25.255022,25.256857,25.258974,25.260294,25.261148,25.261034,25.261093,25.261204,25.260416,25.259438,25.25958,25.261166,25.264915,25.269327,25.273046,25.27625,25.279436,25.282825,25.28584,25.288868,25.290794,25.292603,25.293509,25.294779,25.295872,25.296082,25.295288,25.293764,25.292286,25.29043,25.289305,25.288984,25.289614,25.290464,25.291182,25.29117,25.29097,25.291811,25.290953,25.28826,25.28378,25.280542,25.275354,25.271507,25.26356,25.256315,25.245646,25.237726,25.225132,25.214754,25.201092,25.190035,25.175652,25.16315,25.150696,25.138556,25.125647,25.110735,25.0978,25.082434,25.071089,25.05583,25.043543,25.031298,25.026426,25.018719,25.013012,25.000404,24.987787,24.970308,24.950176,24.919746,24.84873,25.143251,24.480133,21.440264,18.279938,17.322376,17.194887,17.091541,17.098549,17.094006,17.085976
18.82791,22.874302,25.28324,24.812595,24.77334,24.792213,24.818323,24.824675,24.839653,24.852297,24.864796,24.877842,24.892687,24.911793,24.929075,24.951784,24.969797,24.99456,25.012772,25.039797,25.05976,25.089478,25.111109,25.138618,25.156061,25.180145,25.197111,25.216375,25.228712,25.240847,25.248632,25.256554,25.262152,25.26575,25.268078,25.269392,25.271088,25.272882,25.274952,25.276285,25.276598,25.275703,25.274826,25.274387,25.273232,25.272308,25.27269,25.274572,25.278404,25.28266,25.28613,25.288961,25.291681,25.29476,25.29782,25.30098,25.302885,25.304834,25.306042,25.307444,25.308405,25.308477,25.307621,25.306019,25.304493,25.302605,25.301474,25.30108,25.301622,25.302408,25.303055,25.302923,25.30259,25.303303,25.302385,25.299713,25.295343,25.292187,25.287285,25.283735,25.276354,25.269592,25.259659,25.252296,25.240503,25.230711,25.217772,25.207214,25.193386,25.18125,25.169144,25.15721,25.144455,25.129591,25.116657,25.10122,25.089796,25.074417,25.06204,25.049698,25.044777,25.036982,25.031199,25.018251,25.005274,24.988037,24.96827,24.937962,24.864784,25.136435,24.476578,21.51403,18.442448,17.516575,17.399813,17.304491,17.310751,17.299171,17.286406
18.912834,22.901005,25.279587,24.821978,24.787746,24.807133,24.833462,24.839437,24.854588,24.867565,24.880299,24.893475,24.90839,24.927505,24.944786,24.967459,24.985424,25.010092,25.028212,25.05509,25.074951,25.1045,25.126009,25.153286,25.170517,25.194273,25.21095,25.229855,25.241888,25.253653,25.261145,25.268814,25.274242,25.277748,25.279993,25.281221,25.282833,25.284588,25.286541,25.2878,25.287567,25.285948,25.284418,25.283768,25.282633,25.282019,25.283066,25.285528,25.289375,25.293274,25.296598,25.299337,25.30209,25.304886,25.307215,25.309597,25.311089,25.313107,25.314861,25.31661,25.31744,25.317377,25.316452,25.314768,25.31319,25.311245,25.31006,25.309542,25.30996,25.31064,25.31119,25.310925,25.310432,25.311008,25.310005,25.307327,25.303022,25.29992,25.295218,25.291895,25.28494,25.278553,25.26918,25.262245,25.251053,25.2417,25.22928,25.219069,25.205643,25.193792,25.181992,25.17028,25.157698,25.142958,25.130117,25.114738,25.103346,25.087936,25.075502,25.063068,25.058092,25.050192,25.044317,25.03105,25.01774,25.00064,24.981142,24.950796,24.876064,25.131605,24.474934,21.569918,18.562977,17.65802,17.546827,17.457003,17.462795,17.446148,17.430258
19.026836,22.936155,25.273996,24.8346,24.807423,24.82736,24.85377,24.85901,24.874294,24.887745,24.900776,24.914125,24.929115,24.948233,24.965534,24.98816,25.006052,25.030546,25.0485,25.075144,25.094845,25.124151,25.145472,25.172441,25.189426,25.21283,25.229229,25.247751,25.259474,25.270868,25.278063,25.285479,25.290737,25.294132,25.296282,25.29741,25.298912,25.300653,25.302319,25.303186,25.302237,25.299994,25.2978,25.296852,25.29605,25.296148,25.297564,25.299978,25.30364,25.307241,25.310354,25.312918,25.315512,25.31805,25.320024,25.32205,25.323393,25.325224,25.326765,25.328571,25.329733,25.32984,25.32883,25.327108,25.325535,25.3236,25.322422,25.32184,25.32216,25.322771,25.323246,25.322865,25.32224,25.322687,25.321627,25.31899,25.314814,25.311798,25.307367,25.304327,25.297903,25.29197,25.283266,25.276823,25.26633,25.257488,25.245697,25.235914,25.222975,25.21146,25.200005,25.188532,25.176132,25.161474,25.148657,25.13323,25.121796,25.106272,25.093725,25.081133,25.076052,25.067999,25.062017,25.048302,25.034517,25.017643,24.998562,24.96817,24.89117,25.12383,24.471289,21.646957,18.730194,17.85304,17.748466,17.666618,17.672045,17.647997,17.626999
19.11026,22.960232,25.268358,24.844032,24.822853,24.843023,24.869455,24.874115,24.889502,24.903316,24.916552,24.929993,24.945004,24.964083,24.981365,25.003925,25.021738,25.046072,25.06388,25.09032,25.109882,25.138962,25.160112,25.186829,25.20362,25.226772,25.242985,25.26126,25.272778,25.283953,25.290987,25.298271,25.303444,25.306791,25.308893,25.309977,25.311419,25.313185,25.31454,25.314907,25.31341,25.3109,25.308426,25.30738,25.307022,25.307764,25.309145,25.311075,25.314457,25.317915,25.320873,25.323307,25.325724,25.328156,25.33015,25.332222,25.33365,25.335197,25.33609,25.337715,25.339361,25.339792,25.338766,25.337084,25.335564,25.333698,25.332561,25.331978,25.332262,25.332842,25.333277,25.332834,25.332144,25.332504,25.331423,25.328838,25.32477,25.321835,25.317608,25.314768,25.308718,25.3031,25.294853,25.288734,25.2787,25.270193,25.258818,25.249321,25.236702,25.225412,25.214188,25.202871,25.190601,25.175993,25.163162,25.147669,25.136175,25.120552,25.107912,25.095177,25.089983,25.081774,25.075693,25.061575,25.04737,25.030663,25.011915,24.981483,24.902584,25.116787,24.467018,21.70627,18.860107,18.003439,17.902433,17.825834,17.830748,17.801628,17.776905
19.213894,22.98654,25.257868,24.85577,24.843647,24.863693,24.890701,24.895298,24.911097,24.925297,24.938751,24.952208,24.96716,24.98608,25.003231,25.025599,25.043257,25.067371,25.085007,25.111168,25.130512,25.159245,25.180132,25.20643,25.222881,25.24555,25.261383,25.279177,25.290329,25.301094,25.307837,25.31488,25.319933,25.323238,25.32533,25.326399,25.327818,25.329624,25.330698,25.330584,25.328465,25.32554,25.322954,25.322157,25.321993,25.322794,25.324022,25.325676,25.3288,25.332079,25.334883,25.337204,25.339493,25.341822,25.343775,25.345816,25.347246,25.348686,25.349388,25.35087,25.352499,25.35306,25.352243,25.350723,25.349243,25.347433,25.346317,25.345692,25.34589,25.346397,25.346746,25.346157,25.345306,25.345528,25.344381,25.341818,25.337858,25.335003,25.331045,25.32849,25.322952,25.317772,25.310158,25.304497,25.295094,25.287031,25.276169,25.267,25.25477,25.24376,25.232815,25.221718,25.209642,25.195185,25.182455,25.167006,25.155514,25.13984,25.127148,25.114265,25.108925,25.10044,25.094124,25.079367,25.064548,25.047987,25.029646,24.999268,24.917765,25.107124,24.459333,21.778679,19.022266,18.192705,18.095509,18.021364,18.023972,17.991892,17.965199
19.299746,23.005276,25.246159,24.86542,24.862185,24.881834,24.909737,24.914766,24.931131,24.945623,24.959263,24.972675,24.987509,25.006207,25.023182,25.045326,25.062828,25.08672,25.104193,25.13008,25.149193,25.177559,25.19816,25.224007,25.240097,25.262259,25.277695,25.295013,25.30581,25.316196,25.322687,25.329536,25.334515,25.337818,25.339958,25.341059,25.34249,25.344343,25.345188,25.34468,25.342047,25.338774,25.336283,25.335949,25.335773,25.336206,25.337173,25.338692,25.34162,25.344748,25.34744,25.349691,25.35191,25.354189,25.35612,25.358168,25.359596,25.361097,25.361925,25.363348,25.364723,25.365297,25.36475,25.363436,25.36201,25.36026,25.359146,25.35847,25.358578,25.358988,25.359215,25.358448,25.35741,25.357466,25.356215,25.35363,25.349724,25.346912,25.34316,25.340836,25.335722,25.330902,25.323812,25.318537,25.309658,25.301958,25.291517,25.28262,25.270727,25.259977,25.249313,25.238468,25.226637,25.212412,25.19987,25.184572,25.173147,25.157497,25.144827,25.13184,25.126347,25.117552,25.110964,25.095531,25.08008,25.06348,25.04535,25.015007,24.931072,25.09777,24.45071,21.839853,19.161736,18.355654,18.260105,18.184458,18.183722,18.15197,18.125797
19.391062,23.025133,25.233425,24.875257,24.88145,24.900793,24.929693,24.93519,24.952192,24.967035,24.980927,24.994333,25.009045,25.027523,25.044374,25.066347,25.083702,25.107336,25.12459,25.150124,25.168982,25.196907,25.217152,25.242476,25.25818,25.279823,25.294884,25.311747,25.322222,25.332293,25.3386,25.345308,25.350252,25.353579,25.35578,25.356924,25.358374,25.36029,25.360817,25.35976,25.35644,25.35273,25.350224,25.350296,25.350182,25.35039,25.351133,25.352459,25.355133,25.35806,25.360596,25.362747,25.364841,25.367035,25.368937,25.371014,25.372496,25.37409,25.37499,25.376509,25.377934,25.378626,25.378187,25.377028,25.37571,25.374062,25.372965,25.372227,25.372194,25.372454,25.372494,25.371498,25.370201,25.370014,25.368595,25.365969,25.362099,25.35932,25.355751,25.353632,25.348927,25.344465,25.337887,25.332977,25.324629,25.31732,25.307352,25.2988,25.287342,25.27697,25.266722,25.256262,25.244802,25.230919,25.218624,25.203526,25.192204,25.176613,25.163969,25.150852,25.145164,25.136026,25.12916,25.113007,25.096842,25.08002,25.061907,25.031471,24.944973,25.087368,24.44162,21.907356,19.314615,18.533499,18.438927,18.361172,18.35669,18.325432,18.300934
19.482243,23.04552,25.221321,24.885242,24.900646,24.91974,24.949736,24.955816,24.973503,24.988695,25.002878,25.01632,25.030909,25.049162,25.065891,25.087711,25.104935,25.128326,25.145353,25.170534,25.189133,25.216612,25.236486,25.261292,25.276623,25.297781,25.312506,25.32897,25.33919,25.349014,25.3552,25.361814,25.366755,25.370123,25.372393,25.373606,25.375044,25.376925,25.377113,25.3756,25.371735,25.367704,25.365213,25.36563,25.365576,25.365599,25.36617,25.36735,25.369804,25.372541,25.374937,25.376986,25.378962,25.381077,25.382935,25.38503,25.386578,25.38828,25.389257,25.39091,25.392454,25.393272,25.39289,25.391851,25.390633,25.389084,25.388014,25.387236,25.387102,25.38723,25.387102,25.385906,25.384377,25.383953,25.382345,25.379635,25.375734,25.372942,25.36946,25.367464,25.36304,25.358845,25.352661,25.348047,25.34014,25.333172,25.323643,25.315435,25.304438,25.294485,25.2847,25.274683,25.26366,25.250185,25.238192,25.22335,25.212196,25.196745,25.1842,25.17101,25.16514,25.155651,25.14848,25.13152,25.114534,25.09724,25.078886,25.048124,24.95891,25.076538,24.432102,21.975948,19.46947,18.712004,18.616362,18.53521,18.526558,18.496967,18.472921
19.567131,23.066135,25.211878,24.89508,24.918434,24.937399,24.968401,24.975029,24.993343,25.008863,25.02335,25.036871,25.051388,25.069466,25.08607,25.107738,25.124872,25.148092,25.164965,25.189894,25.2083,25.235443,25.255037,25.279451,25.2945,25.315279,25.32974,25.345898,25.355925,25.365553,25.37162,25.378153,25.383076,25.386467,25.388786,25.39008,25.391453,25.393135,25.39302,25.391285,25.387169,25.382986,25.380602,25.381306,25.381336,25.381248,25.381735,25.382847,25.38519,25.38782,25.390133,25.392126,25.394043,25.3961,25.39791,25.39999,25.40156,25.403297,25.404297,25.405962,25.407497,25.4084,25.408148,25.407213,25.406025,25.404528,25.40349,25.402735,25.402578,25.402668,25.402464,25.401176,25.399515,25.398954,25.397202,25.394402,25.39043,25.387587,25.38412,25.382187,25.377928,25.373896,25.367987,25.363602,25.356024,25.349318,25.340122,25.332188,25.32156,25.31195,25.302525,25.292852,25.282188,25.269058,25.257307,25.242714,25.231735,25.216478,25.204086,25.190924,25.184958,25.175198,25.167744,25.149994,25.132195,25.114397,25.095764,25.064524,24.972572,25.066883,24.423506,22.040426,19.613956,18.876692,18.778437,18.694242,18.681883,18.654432,18.62672
19.67143,23.092657,25.201628,24.90745,24.940025,24.958832,24.990898,24.998049,25.016993,25.032824,25.047596,25.061155,25.075556,25.093378,25.10978,25.131212,25.148216,25.171202,25.187849,25.21242,25.230549,25.257235,25.27647,25.30037,25.315046,25.335342,25.349468,25.36525,25.37504,25.384428,25.390356,25.396784,25.401684,25.405088,25.407461,25.40885,25.410156,25.411592,25.411203,25.409342,25.405123,25.400915,25.398624,25.39948,25.399515,25.399302,25.39968,25.4007,25.402878,25.40535,25.407528,25.409412,25.411238,25.413208,25.414932,25.416965,25.418552,25.420324,25.42135,25.423038,25.424572,25.425552,25.425411,25.42456,25.423391,25.421938,25.420935,25.42021,25.42006,25.420128,25.419872,25.418518,25.416744,25.41605,25.414131,25.411203,25.4071,25.404167,25.400661,25.398748,25.39461,25.390715,25.385088,25.380959,25.373755,25.367352,25.358564,25.350983,25.340832,25.331661,25.3227,25.313473,25.303259,25.290567,25.27913,25.264856,25.254112,25.239103,25.22689,25.213736,25.207624,25.197475,25.18963,25.170855,25.15201,25.133465,25.114365,25.082489,24.987406,25.054855,24.412878,22.114416,19.780743,19.067436,18.966553,18.878675,18.861687,18.836117,18.805502
19.755854,23.113121,25.19228,24.917198,24.957556,24.976076,25.008953,25.01649,25.03584,25.051815,25.066698,25.080189,25.094425,25.111973,25.128147,25.14934,25.166216,25.188957,25.20536,25.229548,25.247393,25.27363,25.292528,25.31593,25.33024,25.350065,25.363869,25.379292,25.388853,25.397999,25.403791,25.410122,25.415005,25.418417,25.420845,25.422321,25.42363,25.424969,25.424437,25.422487,25.418177,25.413933,25.411623,25.412485,25.412437,25.412096,25.412333,25.413233,25.415207,25.417492,25.41949,25.421247,25.42295,25.424831,25.426476,25.428474,25.43007,25.431902,25.432976,25.434734,25.436316,25.437374,25.437296,25.436518,25.435389,25.43398,25.433002,25.432295,25.432138,25.43219,25.431892,25.430471,25.428596,25.427786,25.425724,25.422678,25.418453,25.415434,25.411896,25.410004,25.405981,25.402222,25.39686,25.392982,25.386148,25.380049,25.371675,25.364437,25.354753,25.346014,25.33751,25.328716,25.318937,25.306662,25.295528,25.281553,25.271038,25.256243,25.244162,25.230978,25.224716,25.214214,25.206026,25.186403,25.166718,25.147547,25.12807,25.095747,24.998302,25.04486,24.404093,22.1716,19.910952,19.218199,19.116667,19.0255,19.004221,18.979145,18.949623
19.8779,23.14753,25.183964,24.93222,24.981897,25.000446,25.03407,25.041668,25.061455,25.07777,25.092888,25.106377,25.120462,25.137712,25.153646,25.17453,25.191206,25.213589,25.229666,25.253345,25.270805,25.296427,25.31485,25.337591,25.35144,25.370653,25.384033,25.398983,25.408258,25.417141,25.422796,25.42901,25.433838,25.437218,25.439653,25.441189,25.442442,25.4436,25.442867,25.440813,25.436573,25.432547,25.430286,25.43101,25.430775,25.43027,25.430294,25.431011,25.432705,25.434727,25.436474,25.438036,25.43957,25.441303,25.442827,25.444756,25.446346,25.448221,25.449345,25.451195,25.45286,25.45393,25.45378,25.45298,25.451883,25.450493,25.449514,25.448765,25.448542,25.44852,25.448145,25.446642,25.444653,25.443691,25.44146,25.438297,25.433947,25.430828,25.427221,25.425316,25.421377,25.41774,25.412636,25.408995,25.40253,25.396744,25.388798,25.381931,25.372744,25.364468,25.35646,25.348133,25.338818,25.326956,25.31611,25.30238,25.292042,25.277353,25.265314,25.251902,25.245295,25.23415,25.225409,25.204557,25.183691,25.163479,25.143324,25.11041,25.010174,25.030403,24.391783,22.24452,20.078053,19.411674,19.309925,19.21613,19.190512,19.165663,19.138023
19.972761,23.177021,25.180475,24.944508,25.000406,25.019285,25.053253,25.060602,25.080679,25.097387,25.112791,25.12639,25.140453,25.157562,25.17339,25.194109,25.210629,25.232756,25.248621,25.271961,25.28917,25.314354,25.33242,25.354713,25.368275,25.387074,25.400164,25.414791,25.423882,25.432623,25.438221,25.444355,25.44911,25.452417,25.45479,25.456312,25.457462,25.45845,25.45753,25.455355,25.451262,25.447588,25.44543,25.44598,25.445574,25.444952,25.444815,25.445387,25.446877,25.44871,25.450281,25.451694,25.453098,25.454718,25.456139,25.458004,25.459581,25.461468,25.462622,25.464535,25.466276,25.46729,25.46699,25.466097,25.465008,25.463598,25.462587,25.461752,25.46143,25.461306,25.460844,25.459286,25.457226,25.456154,25.45382,25.450617,25.446224,25.443064,25.43941,25.437471,25.433556,25.429985,25.424994,25.42145,25.415154,25.409513,25.40178,25.3951,25.38617,25.378136,25.370394,25.362314,25.353245,25.341578,25.330837,25.317156,25.306833,25.292072,25.279966,25.26624,25.25928,25.247545,25.238337,25.216509,25.194738,25.173635,25.152887,25.11952,25.017433,25.019213,24.38264,22.29688,20.198175,19.550644,19.449057,19.35431,19.326303,19.301596,19.274889
20.11895,23.226778,25.179565,24.963776,25.027166,25.046764,25.08105,25.087904,25.108316,25.125574,25.14131,25.154984,25.168957,25.185791,25.20136,25.221699,25.23791,25.259567,25.27508,25.297867,25.31465,25.339157,25.35669,25.378298,25.391401,25.40956,25.42219,25.436333,25.445158,25.453686,25.459206,25.465256,25.469961,25.473238,25.475613,25.477234,25.478245,25.478806,25.47763,25.47553,25.47187,25.468754,25.466822,25.467155,25.466528,25.465738,25.46538,25.465767,25.466991,25.468582,25.46991,25.471115,25.472347,25.473812,25.475101,25.476854,25.47837,25.480227,25.481377,25.48331,25.485102,25.485958,25.485386,25.484312,25.483212,25.481756,25.480711,25.479786,25.47937,25.479153,25.478611,25.476992,25.474834,25.47362,25.471102,25.467783,25.463242,25.459953,25.456148,25.454096,25.450123,25.44657,25.441685,25.438278,25.432213,25.426777,25.419327,25.4129,25.404333,25.396631,25.38922,25.381426,25.372648,25.361229,25.350632,25.337034,25.326763,25.311947,25.299774,25.285652,25.278223,25.265688,25.255827,25.23263,25.209574,25.187094,25.165373,25.13143,25.02685,25.002584,24.368633,22.369345,20.365118,19.741434,19.63907,19.545658,19.5167,19.49201,19.46604
20.23021,23.267092,25.18136,24.978498,25.046358,25.066614,25.101048,25.107506,25.12812,25.145754,25.16167,25.17533,25.189207,25.205786,25.221092,25.241058,25.256987,25.278257,25.293484,25.315823,25.332264,25.356247,25.373392,25.39447,25.40722,25.424881,25.437153,25.450932,25.459564,25.467922,25.473377,25.47938,25.484097,25.48739,25.48984,25.491634,25.492554,25.492651,25.491276,25.489405,25.486223,25.483545,25.481836,25.48205,25.481289,25.480371,25.47986,25.480125,25.481182,25.482615,25.483765,25.484825,25.485949,25.487318,25.48852,25.490177,25.49163,25.493427,25.494553,25.496452,25.498222,25.498915,25.498123,25.496887,25.495756,25.494259,25.493187,25.492228,25.491783,25.491537,25.490973,25.489326,25.487108,25.485796,25.483131,25.479687,25.474972,25.471546,25.467571,25.465405,25.461323,25.457737,25.452898,25.449608,25.443714,25.438435,25.431194,25.424955,25.416666,25.409214,25.402004,25.394377,25.385786,25.374535,25.364048,25.350536,25.340326,25.325523,25.31335,25.299013,25.291294,25.278234,25.267933,25.24378,25.219812,25.196308,25.173845,25.139505,25.03323,24.990736,24.358627,22.420183,20.48182,19.873075,19.769478,19.678837,19.650862,19.626057,19.600193
20.394758,23.328363,25.186428,25.002281,25.076546,25.0977,25.13193,25.137344,25.158018,25.17617,25.192251,25.205803,25.219463,25.235601,25.250483,25.269838,25.285267,25.305859,25.320614,25.342222,25.358107,25.381248,25.39777,25.418043,25.430271,25.447174,25.458904,25.472137,25.48051,25.4887,25.494162,25.500149,25.504921,25.508345,25.510899,25.512707,25.513544,25.51347,25.512161,25.51058,25.507805,25.505417,25.503798,25.503849,25.502903,25.501833,25.501123,25.501226,25.502073,25.503319,25.504253,25.50511,25.50605,25.50725,25.508316,25.50982,25.511137,25.512808,25.513874,25.515741,25.517538,25.518053,25.516983,25.515602,25.514511,25.513054,25.512014,25.51104,25.510544,25.510258,25.509642,25.50794,25.50559,25.504082,25.501156,25.497515,25.492538,25.488895,25.48465,25.482298,25.47804,25.474392,25.469528,25.46628,25.460491,25.45534,25.448236,25.442118,25.434032,25.426794,25.419807,25.412392,25.404007,25.392937,25.382572,25.369114,25.35892,25.343975,25.331652,25.316778,25.308483,25.294456,25.283377,25.25776,25.232468,25.207094,25.183119,25.148764,25.039988,24.966576,24.333391,22.485842,20.64709,20.06044,19.954294,19.86706,19.840078,19.815252,19.789597
20.517235,23.375288,25.191984,25.021217,25.099968,25.121744,25.155542,25.159897,25.180471,25.19899,25.21513,25.228556,25.242008,25.257782,25.272333,25.291191,25.30619,25.326221,25.340593,25.361622,25.377062,25.399536,25.41557,25.435234,25.447075,25.463404,25.474724,25.48755,25.495749,25.50387,25.509398,25.51541,25.520266,25.523867,25.526506,25.52817,25.528996,25.52913,25.528114,25.526731,25.524069,25.521654,25.519947,25.519892,25.518822,25.517662,25.516827,25.516823,25.517548,25.518686,25.519487,25.5202,25.521002,25.522053,25.523022,25.524399,25.525597,25.527143,25.528149,25.529999,25.53185,25.532274,25.531021,25.529585,25.528585,25.527227,25.526257,25.525295,25.524757,25.524437,25.523771,25.522017,25.51954,25.517849,25.514687,25.510895,25.505707,25.501886,25.497416,25.494913,25.49051,25.486801,25.481857,25.47855,25.47275,25.46763,25.460518,25.454386,25.446321,25.43915,25.432266,25.424976,25.416706,25.405722,25.39543,25.381966,25.37173,25.356586,25.344059,25.328665,25.319853,25.304989,25.293259,25.266533,25.240286,25.213295,25.18792,25.153942,25.043348,24.944475,24.308012,22.528353,20.764692,20.194136,20.085485,20.000484,19.974102,19.949348,19.923853
20.679113,23.436995,25.19837,25.044785,25.129038,25.15158,25.185059,25.188444,25.20918,25.228354,25.244791,25.258242,25.271595,25.287062,25.301302,25.319666,25.334215,25.353659,25.367638,25.38803,25.40297,25.424652,25.44008,25.45899,25.47035,25.485943,25.496708,25.509008,25.51699,25.525028,25.530651,25.536703,25.54172,25.545643,25.54854,25.550137,25.551039,25.551453,25.550833,25.54974,25.547222,25.54472,25.542873,25.542696,25.541466,25.5402,25.539211,25.53909,25.539661,25.540663,25.5413,25.54185,25.542494,25.543388,25.544252,25.545507,25.546598,25.54804,25.548988,25.550838,25.552769,25.552977,25.551329,25.549774,25.548956,25.54775,25.546867,25.545918,25.545315,25.544918,25.544127,25.542234,25.539518,25.537529,25.533993,25.529945,25.524366,25.520157,25.515295,25.512613,25.508095,25.504406,25.499453,25.496134,25.490433,25.485462,25.478495,25.472464,25.46457,25.457579,25.450914,25.443834,25.435745,25.42491,25.414736,25.401312,25.391068,25.375753,25.363052,25.347094,25.337683,25.32184,25.309343,25.281277,25.253845,25.22474,25.197481,25.163994,25.05108,24.918667,24.27848,22.59026,20.927328,20.378061,20.265741,20.18381,20.158083,20.132881,20.1076
20.800465,23.483187,25.202412,25.06089,25.148693,25.17177,25.205164,25.208141,25.229183,25.248934,25.265705,25.279284,25.292665,25.308002,25.322094,25.340178,25.35446,25.37355,25.387306,25.407318,25.42194,25.443113,25.458141,25.476551,25.487598,25.502676,25.513046,25.524984,25.532831,25.54083,25.54655,25.552668,25.557833,25.561998,25.565142,25.566797,25.56788,25.568573,25.568295,25.567434,25.564997,25.562376,25.560396,25.56014,25.55881,25.557476,25.556408,25.55622,25.5567,25.557606,25.558134,25.558578,25.559113,25.559914,25.560713,25.5619,25.562925,25.564314,25.565231,25.567083,25.569067,25.56912,25.56722,25.56556,25.564823,25.563711,25.562902,25.561958,25.561287,25.560793,25.559856,25.55779,25.554834,25.552568,25.548697,25.544405,25.538527,25.534096,25.528954,25.526075,25.521378,25.517622,25.512634,25.509333,25.503763,25.498964,25.492178,25.48628,25.478584,25.471775,25.46532,25.458427,25.450504,25.439823,25.429771,25.416441,25.406252,25.39091,25.378166,25.361908,25.352135,25.335693,25.322723,25.293812,25.265612,25.235098,25.206562,25.173437,25.059029,24.902973,24.261518,22.64242,21.054394,20.519571,20.403175,20.323496,20.298729,20.273726,20.248905
20.955475,23.54158,25.206047,25.07915,25.170958,25.194704,25.228062,25.230658,25.252022,25.272327,25.289371,25.302965,25.316267,25.331335,25.345154,25.362799,25.376682,25.395262,25.408682,25.428177,25.4424,25.462976,25.477562,25.495419,25.506117,25.520641,25.530594,25.542158,25.54987,25.557829,25.563683,25.570013,25.575342,25.579395,25.582542,25.58445,25.585955,25.58698,25.587093,25.586487,25.584232,25.581617,25.579556,25.57917,25.577713,25.576315,25.575161,25.574898,25.575266,25.576044,25.576403,25.576664,25.57704,25.577679,25.578354,25.579393,25.580296,25.58156,25.582422,25.584219,25.586164,25.58639,25.584778,25.583015,25.581902,25.580692,25.579998,25.579039,25.578259,25.577599,25.576431,25.57412,25.570827,25.568203,25.56385,25.558987,25.552986,25.549171,25.54412,25.54062,25.534992,25.53053,25.525196,25.522099,25.516714,25.512064,25.505451,25.499706,25.492249,25.48569,25.479525,25.47293,25.465302,25.454937,25.445166,25.432129,25.42215,25.406986,25.394352,25.377956,25.367895,25.350937,25.337534,25.307781,25.278816,25.247272,25.217945,25.185062,25.069244,24.88869,24.250866,22.719946,21.223278,20.70118,20.57509,20.497686,20.476784,20.45667,20.4338
21.092129,23.592634,25.207626,25.09229,25.186865,25.211317,25.244818,25.247334,25.269064,25.289824,25.307096,25.32069,25.33392,25.348753,25.362337,25.379608,25.393166,25.411324,25.42448,25.443592,25.457537,25.477715,25.492023,25.509539,25.52002,25.534185,25.543863,25.555187,25.562832,25.570807,25.576777,25.58327,25.588675,25.592527,25.595678,25.597965,25.59998,25.60129,25.60172,25.601307,25.599241,25.596716,25.594639,25.594141,25.592615,25.591211,25.590036,25.58975,25.590065,25.590757,25.59099,25.591106,25.59135,25.591843,25.592402,25.593292,25.59406,25.59519,25.595982,25.597687,25.59952,25.600092,25.599077,25.597258,25.595564,25.59414,25.59354,25.592537,25.591639,25.590792,25.589384,25.586824,25.583216,25.580202,25.57553,25.570463,25.564722,25.561665,25.556803,25.55274,25.546013,25.540565,25.534538,25.531443,25.526093,25.521576,25.515072,25.50941,25.502098,25.49571,25.489773,25.48344,25.476051,25.465979,25.456486,25.443792,25.434084,25.419188,25.406708,25.39032,25.38013,25.362902,25.349253,25.31899,25.289557,25.257711,25.228315,25.195208,25.078884,24.884924,24.256365,22.797363,21.37186,20.857435,20.721647,20.64626,20.62971,20.614937,20.59432
21.243952,23.649954,25.209888,25.106686,25.20414,25.229652,25.263397,25.265831,25.288082,25.30949,25.327156,25.340866,25.354113,25.368778,25.382168,25.399105,25.41236,25.430155,25.4431,25.461887,25.475574,25.495377,25.509413,25.526596,25.536871,25.550644,25.56,25.571047,25.57861,25.586641,25.59272,25.599106,25.604477,25.60851,25.612066,25.61477,25.61727,25.618858,25.6196,25.619375,25.61747,25.614986,25.612839,25.612192,25.610624,25.60928,25.608149,25.607887,25.608204,25.608868,25.609035,25.609041,25.609167,25.609516,25.609955,25.610674,25.611282,25.612225,25.612902,25.614473,25.616188,25.617027,25.61652,25.614578,25.6123,25.610771,25.610418,25.609413,25.608368,25.607344,25.605696,25.602863,25.598833,25.595007,25.59024,25.586304,25.581577,25.578554,25.5735,25.569347,25.561666,25.554937,25.547663,25.544065,25.538574,25.534378,25.527962,25.52226,25.51492,25.508556,25.502756,25.496616,25.489351,25.479456,25.470173,25.457762,25.448322,25.433619,25.421171,25.404654,25.394272,25.376665,25.362682,25.331797,25.301817,25.269522,25.239946,25.206009,25.089523,24.886065,24.271168,22.885412,21.531324,21.025785,20.881397,20.80912,20.795404,20.781345,20.761887
21.40479,23.709398,25.209343,25.117756,25.217525,25.24429,25.278553,25.28125,25.30424,25.326365,25.34453,25.35843,25.371752,25.386297,25.399548,25.41621,25.429192,25.446692,25.459494,25.47809,25.491646,25.511282,25.525217,25.542292,25.552515,25.566095,25.575253,25.586168,25.593733,25.601913,25.608114,25.614256,25.61955,25.623974,25.628174,25.63134,25.634344,25.636255,25.637352,25.637331,25.635643,25.633259,25.631186,25.630533,25.629028,25.627758,25.626726,25.62653,25.626902,25.627571,25.627731,25.627697,25.627779,25.628063,25.62844,25.629068,25.629585,25.630411,25.631016,25.632473,25.634073,25.635023,25.634796,25.63294,25.630533,25.628798,25.628237,25.627045,25.62586,25.624592,25.622698,25.619638,25.615425,25.61132,25.606733,25.603678,25.599352,25.595697,25.590162,25.586185,25.578348,25.571234,25.562876,25.558153,25.552042,25.547983,25.541576,25.535892,25.528511,25.52212,25.516394,25.510357,25.503132,25.4933,25.484104,25.471832,25.462555,25.447897,25.435375,25.418602,25.407953,25.389944,25.37566,25.344275,25.313911,25.281366,25.251802,25.21674,25.10089,24.895533,24.297836,22.971725,21.67657,21.185455,21.040895,20.972427,20.960268,20.945154,20.92707
21.558073,23.76513,25.206646,25.125204,25.226414,25.25421,25.288937,25.292065,25.315756,25.338518,25.357157,25.37126,25.384655,25.399109,25.412254,25.428688,25.441422,25.458664,25.47133,25.489815,25.503325,25.522964,25.536957,25.554134,25.56445,25.578045,25.587172,25.59815,25.605862,25.614328,25.620739,25.626738,25.632008,25.636845,25.64169,25.645311,25.648865,25.65119,25.652708,25.652908,25.651432,25.649124,25.647274,25.646849,25.645493,25.644234,25.643265,25.643118,25.643505,25.644157,25.6443,25.644262,25.644358,25.644669,25.64506,25.645714,25.646257,25.647116,25.647745,25.649183,25.650723,25.65161,25.651346,25.649942,25.648106,25.645792,25.64407,25.64234,25.64111,25.639477,25.637325,25.634142,25.63028,25.627285,25.623177,25.619291,25.613617,25.608982,25.6029,25.599049,25.592169,25.586382,25.577553,25.57093,25.563496,25.559187,25.552906,25.547714,25.540539,25.534197,25.528564,25.522606,25.515446,25.505648,25.496464,25.484184,25.474916,25.460186,25.447554,25.43047,25.419483,25.401073,25.386572,25.354742,25.32401,25.291414,25.262129,25.22632,25.111355,24.906479,24.323637,23.041018,21.792358,21.322353,21.187187,21.122358,21.111248,21.096743,21.081116
21.745365,23.82986,25.198738,25.1309,25.234556,25.263784,25.299742,25.304005,25.328854,25.352354,25.371557,25.385832,25.399239,25.413507,25.426502,25.442636,25.455042,25.47197,25.484514,25.50294,25.51646,25.536211,25.550346,25.567743,25.578226,25.591925,25.601053,25.612116,25.61991,25.628471,25.634912,25.640774,25.646042,25.651144,25.65647,25.660477,25.664562,25.667313,25.669333,25.669825,25.668875,25.66703,25.665676,25.665483,25.66433,25.663115,25.662266,25.66221,25.662664,25.663345,25.663519,25.663523,25.663696,25.664097,25.664549,25.665272,25.665878,25.666801,25.66747,25.66887,25.670322,25.671036,25.670599,25.669628,25.668476,25.666002,25.663565,25.661427,25.660025,25.658064,25.655668,25.65232,25.648575,25.646217,25.642065,25.637033,25.629866,25.624342,25.617718,25.613836,25.607838,25.603384,25.594965,25.587654,25.579552,25.574818,25.568096,25.562727,25.55556,25.549376,25.543808,25.537868,25.530733,25.520906,25.51167,25.499296,25.489967,25.475058,25.462254,25.444756,25.433357,25.414465,25.39969,25.367775,25.337198,25.304504,25.275135,25.238447,25.12507,24.923275,24.358475,23.120892,21.921432,21.478218,21.35732,21.296724,21.286758,21.27359,21.261173
21.89707,23.880955,25.190973,25.135273,25.241678,25.27228,25.309822,25.315493,25.3415,25.365505,25.38507,25.399319,25.412586,25.426554,25.439327,25.45513,25.467186,25.483799,25.496235,25.514595,25.528114,25.54793,25.562162,25.579655,25.59017,25.603785,25.612766,25.623743,25.631483,25.63986,25.646116,25.651892,25.657127,25.662153,25.667545,25.671762,25.676186,25.679174,25.681551,25.682257,25.682028,25.681019,25.680248,25.68007,25.679045,25.677925,25.677214,25.677265,25.677832,25.678574,25.6788,25.678852,25.679098,25.679564,25.680048,25.680775,25.681377,25.682266,25.682907,25.684202,25.685528,25.6861,25.685583,25.684668,25.683704,25.681887,25.680107,25.678066,25.676332,25.674248,25.671698,25.668135,25.663828,25.660515,25.655445,25.650122,25.642744,25.63705,25.630192,25.626099,25.619946,25.615417,25.608133,25.602451,25.59519,25.590113,25.582184,25.575466,25.567965,25.562143,25.5566,25.550625,25.543453,25.533585,25.524328,25.511919,25.502579,25.487553,25.474607,25.456802,25.445108,25.425812,25.410751,25.37922,25.349375,25.31653,25.286572,25.24889,25.137035,24.939571,24.390142,23.186218,22.02215,21.596945,21.485863,21.429626,21.422987,21.412848,21.404846
22.10023,23.944801,25.17488,25.137909,25.249355,25.281822,25.321426,25.328753,25.35639,25.381348,25.40168,25.416195,25.429552,25.443388,25.456049,25.47159,25.483334,25.499699,25.512098,25.530483,25.544052,25.563978,25.578312,25.596056,25.60682,25.62079,25.630005,25.641033,25.64856,25.656435,25.662224,25.667887,25.673191,25.678205,25.68362,25.687853,25.692455,25.69568,25.698524,25.69963,25.700136,25.699785,25.699501,25.699368,25.698492,25.697481,25.69694,25.697128,25.697845,25.698702,25.699036,25.699186,25.69955,25.70013,25.700699,25.70151,25.702183,25.703121,25.703794,25.705038,25.70626,25.706718,25.706137,25.70518,25.704262,25.70297,25.701803,25.6999,25.697935,25.695795,25.693142,25.689423,25.684626,25.680408,25.674515,25.669012,25.661528,25.655718,25.648565,25.644148,25.637577,25.632729,25.626234,25.62194,25.615501,25.610325,25.601864,25.594398,25.586409,25.580418,25.574812,25.568865,25.56163,25.551647,25.542276,25.52971,25.520277,25.50502,25.491837,25.473635,25.461613,25.441874,25.426498,25.395237,25.365995,25.332628,25.301773,25.263601,25.153603,24.953743,24.422144,23.28125,22.183565,21.784258,21.680237,21.624996,21.61425,21.600452,21.589003
22.255241,23.99121,25.159637,25.137959,25.253807,25.287697,25.328564,25.336733,25.365564,25.391472,25.412622,25.427608,25.441296,25.455265,25.467999,25.483501,25.495136,25.511438,25.523886,25.542362,25.556002,25.576027,25.590435,25.608366,25.619358,25.634007,25.643877,25.65521,25.662546,25.669912,25.675179,25.68076,25.686226,25.691406,25.696892,25.700956,25.70551,25.708874,25.712112,25.713646,25.714466,25.71411,25.713907,25.713873,25.713099,25.71215,25.711716,25.712004,25.712831,25.71378,25.71421,25.71445,25.714909,25.7156,25.716251,25.71718,25.717962,25.719027,25.719769,25.721052,25.72226,25.722687,25.72209,25.72108,25.720112,25.718725,25.717482,25.715574,25.71365,25.711515,25.708855,25.705147,25.70035,25.696127,25.690172,25.684578,25.676918,25.670958,25.663546,25.658901,25.65207,25.647087,25.640339,25.635841,25.629396,25.624447,25.616676,25.609797,25.601418,25.59466,25.588924,25.583094,25.575825,25.565739,25.556238,25.543516,25.533993,25.51855,25.50517,25.486698,25.474495,25.454496,25.438938,25.407549,25.37828,25.344343,25.312927,25.274975,25.166021,24.957735,24.437351,23.357988,22.325687,21.948397,21.846102,21.788692,21.76755,21.743004,21.719587
22.441557,24.042849,25.13649,25.136633,25.2594,25.294807,25.337587,25.34716,25.37767,25.404766,25.42695,25.44253,25.456642,25.470825,25.483707,25.49924,25.510796,25.527103,25.539677,25.558346,25.572124,25.592266,25.606678,25.625511,25.6377,25.653185,25.663149,25.67424,25.681025,25.68786,25.69279,25.698282,25.703854,25.709137,25.714674,25.718624,25.72319,25.726717,25.730293,25.732157,25.73322,25.732868,25.73277,25.732857,25.732195,25.731295,25.73096,25.731342,25.732285,25.733341,25.733885,25.734253,25.734856,25.73573,25.736544,25.737705,25.738695,25.74,25.740896,25.742292,25.74351,25.74394,25.743343,25.742285,25.741245,25.739723,25.738373,25.736437,25.734554,25.7324,25.729713,25.726004,25.721195,25.716965,25.710926,25.705217,25.69734,25.691198,25.683458,25.67852,25.671362,25.666224,25.659225,25.654552,25.648113,25.64341,25.63651,25.630468,25.622066,25.614805,25.609013,25.603209,25.595871,25.58554,25.575699,25.562483,25.552582,25.536642,25.522898,25.503944,25.491413,25.471096,25.455427,25.423891,25.394503,25.359531,25.327229,25.290747,25.184141,24.962044,24.454777,23.461996,22.520731,22.170729,22.065248,21.9978,21.963224,21.934248,21.90594
22.549294,24.069557,25.1194,25.134787,25.262777,25.29892,25.343124,25.353827,25.385483,25.413279,25.436071,25.451973,25.466316,25.480633,25.493633,25.509232,25.520763,25.537125,25.549816,25.56867,25.58258,25.602793,25.617153,25.63711,25.650793,25.666805,25.676237,25.686644,25.692806,25.699417,25.704414,25.709885,25.715452,25.720716,25.726273,25.730265,25.734924,25.738554,25.742231,25.744125,25.74525,25.744953,25.744946,25.745113,25.74451,25.743628,25.743338,25.74376,25.744751,25.745863,25.74647,25.746933,25.747646,25.748682,25.74965,25.751019,25.752192,25.753712,25.754753,25.756268,25.757507,25.757967,25.757378,25.7563,25.755215,25.75363,25.752218,25.750257,25.74837,25.746176,25.743446,25.739706,25.734858,25.730572,25.724436,25.718636,25.710615,25.704365,25.69643,25.6913,25.683954,25.678738,25.671717,25.667095,25.660719,25.656118,25.6497,25.644196,25.636168,25.62902,25.623285,25.617401,25.610004,25.59943,25.589231,25.57547,25.56512,25.548658,25.534597,25.51524,25.502419,25.481916,25.466288,25.43468,25.40515,25.36932,25.336412,25.302143,25.198101,24.96497,24.464518,23.531096,22.652258,22.319979,22.20942,22.129412,22.086105,22.062416,22.040216
22.717684,24.11144,25.094002,25.134304,25.271074,25.30821,25.35507,25.368073,25.401861,25.430899,25.45489,25.471561,25.486597,25.501389,25.51467,25.530441,25.54203,25.558527,25.571411,25.590427,25.604374,25.624472,25.638601,25.659683,25.674986,25.690945,25.69907,25.708662,25.71447,25.720781,25.72563,25.730862,25.736168,25.741188,25.746511,25.750336,25.75486,25.758438,25.762041,25.763872,25.764933,25.764606,25.764584,25.764761,25.764145,25.763247,25.76294,25.76336,25.764359,25.765493,25.766134,25.766653,25.767424,25.76857,25.76966,25.771225,25.772575,25.774311,25.775503,25.777172,25.77848,25.779032,25.778496,25.777475,25.77641,25.774849,25.773453,25.77153,25.769678,25.767502,25.76478,25.76107,25.756239,25.751944,25.74576,25.739937,25.731808,25.725433,25.717222,25.711817,25.704124,25.69869,25.691418,25.686663,25.680187,25.675617,25.6695,25.66436,25.656492,25.64932,25.643599,25.63764,25.630117,25.61922,25.608646,25.594297,25.583447,25.56633,25.551817,25.531857,25.518616,25.497635,25.481752,25.45021,25.420895,25.38357,25.348476,25.311056,25.206371,24.964912,24.485762,23.646389,22.853668,22.52368,22.390694,22.305931,22.262224,22.242842,22.22393
22.84604,24.142862,25.074787,25.135237,25.279268,25.316996,25.366173,25.381308,25.416943,25.447018,25.472075,25.489506,25.50529,25.520628,25.534197,25.550152,25.561855,25.578495,25.591536,25.610598,25.62447,25.644325,25.658188,25.67974,25.695839,25.711212,25.718044,25.727137,25.733034,25.739166,25.743773,25.7487,25.753649,25.758347,25.763319,25.766884,25.771132,25.774532,25.77793,25.779623,25.780523,25.7801,25.779968,25.780085,25.779402,25.778463,25.778097,25.778473,25.77944,25.780558,25.781185,25.781693,25.782434,25.783585,25.784714,25.786356,25.787771,25.789604,25.790874,25.792646,25.794035,25.794693,25.794228,25.793308,25.792313,25.790852,25.789532,25.787683,25.785881,25.783758,25.781084,25.777445,25.772675,25.768412,25.76226,25.756489,25.748346,25.741905,25.733496,25.727886,25.719887,25.71423,25.70663,25.701645,25.694963,25.690332,25.684164,25.679022,25.6711,25.663864,25.658094,25.65205,25.644398,25.633295,25.622532,25.60787,25.596725,25.57918,25.564339,25.543928,25.53038,25.508915,25.492653,25.461311,25.432459,25.393847,25.35623,25.312208,25.204134,24.961967,24.505795,23.738762,23.004744,22.661642,22.503242,22.423683,22.387814,22.369925,22.350296
23.012272,24.17988,25.045448,25.134287,25.288372,25.326101,25.377846,25.395542,25.433348,25.464642,25.49096,25.509354,25.52616,25.54231,25.556282,25.572512,25.584398,25.601234,25.61445,25.633533,25.647263,25.666845,25.68046,25.70202,25.718315,25.733353,25.739624,25.748434,25.754288,25.760286,25.764723,25.769432,25.774096,25.778502,25.78313,25.786427,25.79039,25.793613,25.796806,25.798363,25.799116,25.798626,25.798439,25.798553,25.797897,25.79701,25.79668,25.79709,25.798126,25.799328,25.800043,25.80063,25.801409,25.802631,25.803875,25.805687,25.807234,25.809244,25.810652,25.812618,25.814146,25.814983,25.814636,25.813847,25.812912,25.811522,25.810236,25.808409,25.806599,25.804453,25.801754,25.798138,25.793388,25.789125,25.782944,25.777159,25.76888,25.762266,25.753471,25.747492,25.738958,25.732922,25.724848,25.71958,25.712667,25.70803,25.701899,25.69702,25.690195,25.683834,25.677532,25.670456,25.662577,25.6513,25.640175,25.624874,25.613111,25.594797,25.57943,25.558552,25.544872,25.522997,25.506271,25.475445,25.447498,25.407223,25.36615,25.313791,25.20164,24.961235,24.532484,23.83904,23.171589,22.835655,22.668335,22.593039,22.561602,22.545967,22.52536
23.135088,24.205143,25.021221,25.132534,25.294363,25.331514,25.384964,25.40459,25.443865,25.475903,25.503038,25.522108,25.539707,25.55651,25.570787,25.587242,25.599312,25.616335,25.629679,25.648752,25.66233,25.681728,25.695236,25.716263,25.731962,25.746857,25.753395,25.762224,25.767982,25.773928,25.778305,25.78295,25.787502,25.791782,25.79624,25.799381,25.803173,25.806292,25.809357,25.810825,25.811499,25.810982,25.810802,25.810953,25.810392,25.809605,25.809383,25.809874,25.811033,25.812355,25.813211,25.813913,25.814764,25.816074,25.817438,25.81941,25.82107,25.823235,25.824753,25.826887,25.82854,25.829546,25.829311,25.828632,25.827744,25.826403,25.82512,25.823277,25.821411,25.81919,25.816423,25.812778,25.808016,25.80373,25.797508,25.791697,25.783297,25.77654,25.767435,25.761164,25.752207,25.745865,25.737434,25.731974,25.72492,25.720303,25.71419,25.709564,25.70407,25.698812,25.691895,25.683624,25.675533,25.664179,25.652779,25.636957,25.624657,25.605736,25.590048,25.568747,25.554756,25.532635,25.515879,25.485907,25.458958,25.417051,25.37258,25.31301,25.197418,24.961447,24.552647,23.898762,23.272005,22.956297,22.798405,22.725975,22.694986,22.68084,22.65872
23.302464,24.242094,24.990284,25.130386,25.301706,25.338284,25.39434,25.416922,25.458073,25.490744,25.518732,25.538464,25.556828,25.574245,25.588787,25.605507,25.61787,25.635294,25.64897,25.66822,25.681719,25.70106,25.714573,25.734953,25.74979,25.764128,25.770584,25.7792,25.784796,25.79054,25.794756,25.79925,25.803686,25.807903,25.81227,25.81529,25.818933,25.821966,25.824913,25.826288,25.826874,25.826319,25.826134,25.826319,25.825857,25.825184,25.825087,25.825663,25.826937,25.828371,25.82939,25.830248,25.831198,25.832632,25.834148,25.836313,25.838099,25.840424,25.842052,25.844337,25.846102,25.847277,25.847164,25.846676,25.845924,25.84473,25.843515,25.841702,25.839808,25.837526,25.834694,25.831018,25.82625,25.821966,25.815788,25.810062,25.801723,25.794973,25.785786,25.779408,25.770258,25.763752,25.755133,25.749575,25.742474,25.737886,25.73173,25.727106,25.721983,25.717035,25.70986,25.701056,25.692598,25.68095,25.669424,25.653364,25.640675,25.621557,25.606295,25.58383,25.56734,25.545372,25.531294,25.50526,25.480907,25.435059,25.38251,25.311207,25.189875,24.956593,24.571665,23.970081,23.397697,23.10773,22.961077,22.891945,22.861095,22.848598,22.823994
23.438965,24.276348,24.969913,25.131271,25.309061,25.34519,25.403564,25.428928,25.47162,25.504637,25.533257,25.553476,25.57237,25.590187,25.604849,25.6217,25.634272,25.651958,25.66585,25.685137,25.698473,25.717653,25.731117,25.750801,25.764746,25.778362,25.78454,25.792788,25.798151,25.803595,25.80759,25.811895,25.816254,25.820482,25.824858,25.827822,25.831385,25.834372,25.837248,25.838562,25.839087,25.838509,25.838326,25.838543,25.838182,25.83763,25.837664,25.838333,25.839706,25.84123,25.842403,25.843412,25.84445,25.845982,25.847626,25.849941,25.85183,25.854275,25.855972,25.858368,25.860212,25.861519,25.861507,25.861198,25.860603,25.859573,25.858435,25.856657,25.854727,25.852388,25.849493,25.845766,25.840986,25.836695,25.830593,25.824997,25.816824,25.810175,25.801079,25.794743,25.785591,25.779047,25.770369,25.764769,25.757633,25.753016,25.746674,25.741785,25.736172,25.730894,25.723942,25.71548,25.706907,25.695095,25.683668,25.667652,25.654848,25.635643,25.620708,25.596754,25.577538,25.554298,25.541155,25.516275,25.492476,25.442783,25.384247,25.30345,25.178473,24.951883,24.591702,24.036293,23.50993,23.241478,23.103361,23.036165,23.004192,22.992111,22.964155
23.549252,24.308243,24.95937,25.136145,25.318367,25.35423,25.415123,25.443605,25.488136,25.52175,25.551323,25.572317,25.591993,25.610336,25.625162,25.642002,25.654581,25.67214,25.685892,25.704716,25.717543,25.736095,25.749187,25.768028,25.78118,25.794004,25.799774,25.807526,25.812561,25.81761,25.821312,25.825357,25.82955,25.833714,25.838028,25.840893,25.84434,25.847252,25.85004,25.8513,25.851776,25.851185,25.851013,25.851267,25.85105,25.850666,25.850885,25.85169,25.853197,25.854837,25.85619,25.857355,25.858446,25.86003,25.861774,25.864222,25.866213,25.868778,25.870552,25.873087,25.875057,25.876532,25.876629,25.8765,25.876041,25.875154,25.874079,25.8723,25.870298,25.867876,25.864899,25.861103,25.856276,25.851938,25.84584,25.840328,25.832209,25.825548,25.81635,25.809895,25.800507,25.793753,25.78477,25.778946,25.771587,25.766834,25.760162,25.754934,25.748814,25.743423,25.737211,25.729813,25.721874,25.710398,25.699116,25.682945,25.670065,25.649834,25.633553,25.607466,25.587095,25.55761,25.536861,25.502254,25.472372,25.42131,25.36599,25.280424,25.155333,24.94756,24.624634,24.123795,23.644232,23.390076,23.25405,23.19134,23.160633,23.147945,23.113544
23.660192,24.351124,24.962912,25.149338,25.333204,25.36888,25.43129,25.461964,25.507765,25.54184,25.572166,25.59377,25.614008,25.63265,25.647493,25.664156,25.676609,25.69381,25.707205,25.725296,25.73744,25.755028,25.767445,25.785595,25.798418,25.81044,25.815445,25.82244,25.827002,25.83151,25.834837,25.838572,25.842596,25.846704,25.850965,25.853733,25.857056,25.859882,25.862566,25.863756,25.864168,25.863556,25.863375,25.863651,25.863562,25.863344,25.863758,25.864704,25.866352,25.868093,25.869617,25.870934,25.87208,25.873713,25.875546,25.878124,25.880234,25.882948,25.88481,25.887482,25.889568,25.89119,25.89138,25.891384,25.891016,25.89022,25.889168,25.88734,25.885227,25.882683,25.879593,25.875698,25.870802,25.866392,25.860308,25.8549,25.846912,25.840328,25.831163,25.824692,25.81521,25.808348,25.799118,25.793056,25.785372,25.78035,25.773134,25.767368,25.760496,25.75475,25.748951,25.74236,25.734938,25.72386,25.712889,25.696802,25.683954,25.662947,25.645464,25.618267,25.59816,25.563429,25.535086,25.490398,25.453876,25.400776,25.348875,25.261738,25.141684,24.958202,24.68001,24.248789,23.824333,23.577293,23.429554,23.362116,23.325886,23.310644,23.27295
23.796104,24.404772,24.96849,25.165363,25.350777,25.386337,25.449232,25.480824,25.527115,25.56134,25.591915,25.613672,25.634012,25.652603,25.66726,25.6837,25.69609,25.7131,25.7263,25.743877,25.75551,25.772243,25.783958,25.801895,25.815016,25.826403,25.830378,25.836496,25.840544,25.844465,25.847431,25.850904,25.854849,25.858965,25.863235,25.865927,25.869131,25.87188,25.874445,25.875536,25.875849,25.875193,25.87499,25.87528,25.875296,25.875214,25.875809,25.876896,25.878674,25.880522,25.882208,25.883669,25.884905,25.886627,25.88855,25.891268,25.893509,25.896366,25.89831,25.901072,25.9032,25.904884,25.905117,25.905169,25.904823,25.904028,25.902935,25.901005,25.89875,25.896025,25.892773,25.88875,25.883778,25.879307,25.873291,25.868038,25.86034,25.854015,25.84518,25.838926,25.829693,25.82297,25.813799,25.807669,25.799772,25.794472,25.786732,25.780413,25.772873,25.766577,25.760239,25.753275,25.745508,25.734423,25.723856,25.70811,25.695112,25.674156,25.656979,25.630299,25.610577,25.576681,25.549133,25.505377,25.468998,25.410404,25.351711,25.25901,25.14343,24.975695,24.738958,24.394184,24.037956,23.788235,23.610783,23.526405,23.478748,23.463228,23.433458
23.969494,24.48267,24.98789,25.193392,25.377995,25.412811,25.474758,25.506275,25.552423,25.58674,25.617462,25.639357,25.659712,25.67817,25.692635,25.708813,25.721056,25.737698,25.75053,25.76738,25.778372,25.793972,25.804728,25.822266,25.835669,25.846252,25.849003,25.85404,25.857426,25.86061,25.863106,25.866232,25.870033,25.874125,25.878376,25.88098,25.884048,25.8867,25.889124,25.890097,25.890274,25.889542,25.889252,25.889488,25.889502,25.889479,25.890163,25.891325,25.893135,25.895002,25.896786,25.898375,25.899708,25.901562,25.903603,25.906525,25.908978,25.912102,25.914217,25.917164,25.91939,25.921215,25.92155,25.921717,25.921442,25.920715,25.919638,25.917662,25.915314,25.91247,25.909105,25.904997,25.899979,25.895432,25.8895,25.884445,25.877127,25.87113,25.862726,25.856756,25.847866,25.841356,25.832226,25.825918,25.817612,25.81182,25.803219,25.796028,25.787445,25.780188,25.772667,25.764723,25.756157,25.744923,25.734816,25.719938,25.707367,25.687695,25.671955,25.647596,25.629604,25.599085,25.574581,25.532667,25.495676,25.43126,25.367146,25.277695,25.177399,25.033827,24.842428,24.58155,24.297155,24.067184,23.874235,23.763084,23.686808,23.660591,23.629848
24.11034,24.548946,25.008127,25.220232,25.402946,25.435766,25.496223,25.527784,25.573833,25.608376,25.639458,25.661728,25.682293,25.700811,25.715286,25.731314,25.743397,25.75964,25.772081,25.78824,25.798674,25.813234,25.823076,25.840342,25.854149,25.8642,25.865982,25.870155,25.872974,25.875513,25.877554,25.880312,25.883907,25.887884,25.892057,25.89457,25.897526,25.900097,25.902403,25.903288,25.903337,25.902514,25.902073,25.90219,25.902079,25.901997,25.90261,25.903727,25.905413,25.907175,25.908928,25.910547,25.911913,25.913836,25.915941,25.919033,25.921679,25.925058,25.927343,25.930492,25.932833,25.934826,25.935282,25.935617,25.935452,25.934877,25.933903,25.931992,25.929653,25.926819,25.923456,25.919348,25.914312,25.90969,25.903778,25.898867,25.891792,25.885996,25.877829,25.87201,25.863283,25.856878,25.84761,25.841002,25.83216,25.825819,25.816273,25.808132,25.798368,25.79008,25.781462,25.772663,25.76334,25.751892,25.741995,25.728012,25.716358,25.698318,25.683764,25.662468,25.647808,25.620533,25.597347,25.552092,25.509298,25.439407,25.375319,25.298574,25.22026,25.103813,24.943258,24.716272,24.470154,24.287941,24.114227,23.977093,23.861458,23.814104,23.767271
24.271877,24.640318,25.049362,25.25895,25.436256,25.469486,25.527567,25.557194,25.602114,25.636665,25.66779,25.69034,25.71113,25.729765,25.744259,25.760012,25.77175,25.787216,25.798922,25.813948,25.823544,25.83693,25.845993,25.861137,25.872828,25.881256,25.882576,25.885973,25.888283,25.890284,25.891981,25.894432,25.89785,25.901737,25.905853,25.9083,25.911161,25.91363,25.915821,25.916649,25.916622,25.915756,25.915213,25.915237,25.915066,25.91498,25.915585,25.916689,25.91832,25.92005,25.921854,25.923609,25.925114,25.927258,25.929571,25.933022,25.936012,25.939878,25.942518,25.946125,25.948761,25.951162,25.9519,25.952595,25.952642,25.952345,25.951536,25.949764,25.947472,25.944708,25.9414,25.937374,25.932404,25.927761,25.921926,25.91721,25.910414,25.904825,25.89685,25.891113,25.882473,25.876131,25.866625,25.859615,25.850138,25.843212,25.832773,25.823818,25.813004,25.803831,25.79431,25.784954,25.775246,25.764061,25.75471,25.742245,25.73212,25.71692,25.705294,25.685902,25.670973,25.642782,25.61854,25.571346,25.52756,25.463808,25.411398,25.353851,25.300072,25.2185,25.102001,24.932728,24.743126,24.605251,24.449549,24.30115,24.158737,24.091726,24.021765
24.363928,24.70489,25.087675,25.287878,25.4597,25.495464,25.551594,25.578396,25.621927,25.656498,25.687523,25.710499,25.73218,25.751574,25.766169,25.781528,25.792812,25.807362,25.818241,25.832056,25.840769,25.853317,25.862131,25.873991,25.8816,25.887888,25.889553,25.892645,25.894754,25.896606,25.898249,25.900623,25.903996,25.907875,25.911991,25.914442,25.917255,25.919651,25.921793,25.92262,25.922625,25.921795,25.921288,25.921322,25.921236,25.921253,25.921959,25.92313,25.924839,25.926659,25.928598,25.930529,25.932203,25.934591,25.93714,25.940933,25.94423,25.94853,25.951504,25.955568,25.958511,25.96134,25.962362,25.963387,25.96362,25.963541,25.962841,25.96115,25.958868,25.956127,25.95285,25.948893,25.943989,25.939371,25.933596,25.929003,25.922344,25.916834,25.90888,25.903091,25.894377,25.887987,25.87823,25.870913,25.861004,25.853748,25.842934,25.833729,25.822586,25.81321,25.803518,25.794268,25.78481,25.774355,25.765783,25.754883,25.746227,25.733885,25.725996,25.705612,25.685226,25.650219,25.621674,25.574043,25.534756,25.48626,25.451736,25.407972,25.366695,25.310015,25.2337,25.132778,24.998552,24.867151,24.704943,24.564623,24.423862,24.35084,24.263964
24.531914,24.815454,25.146027,25.328861,25.491987,25.53462,25.58917,25.611603,25.652542,25.685886,25.715578,25.736397,25.75374,25.769377,25.78323,25.798826,25.810246,25.824867,25.8356,25.849344,25.858149,25.870718,25.879501,25.889137,25.893812,25.898466,25.900232,25.902996,25.904943,25.906721,25.908401,25.910774,25.914164,25.918087,25.922253,25.924747,25.927553,25.929884,25.93197,25.932789,25.932795,25.93198,25.931465,25.931486,25.931456,25.931559,25.932358,25.933613,25.935446,25.937431,25.939585,25.941824,25.943855,25.946743,25.949745,25.954172,25.958002,25.963043,25.966589,25.971375,25.974768,25.978247,25.979723,25.981325,25.981913,25.98229,25.981894,25.980574,25.978575,25.976158,25.9732,25.969631,25.965147,25.96085,25.955498,25.951319,25.94517,25.940012,25.932426,25.92682,25.918364,25.912172,25.902464,25.895027,25.884949,25.877544,25.866665,25.857424,25.84597,25.836214,25.826195,25.816858,25.807638,25.797499,25.788969,25.778133,25.769524,25.757647,25.750547,25.730232,25.70872,25.67513,25.649515,25.613894,25.589012,25.560562,25.541779,25.511627,25.481619,25.446133,25.402922,25.353762,25.270918,25.165562,25.029089,24.920702,24.802744,24.73162,24.638145
