7.7641163,9.508653,10.755977,11.876351,12.210993,12.525838,12.588555,12.581298,12.469536,12.312992,12.182212,12.102034,12.11138,12.160421,12.260309,12.356363,12.479465,12.596279,12.719915,12.795779,12.878703,12.931301,13.004906,13.059079,13.127028,13.1679945,13.216099,13.241998,13.276872,13.297315,13.307371,13.308039,13.3189945,13.34625,13.388884,13.458285,13.531101,13.632472,13.7267275,13.826581,13.882332,13.94262,13.97763,14.026688,14.0604105,14.121468,14.171958,14.206926,14.203631,14.20275,14.143874,14.044103,13.619838,12.745827,11.135158,8.813838,6.5858436
10.068613,12.117735,12.793841,13.293531,13.349646,13.460696,13.525642,13.562816,13.542773,13.512891,13.481626,13.465617,13.471698,13.488668,13.520403,13.552605,13.595489,13.636688,13.683017,13.714776,13.747256,13.765203,13.787702,13.803212,13.818601,13.824654,13.827647,13.825389,13.826274,13.828143,13.827376,13.8262825,13.827352,13.83328,13.843295,13.860816,13.879268,13.90651,13.933063,13.961616,13.977565,13.994903,14.005178,14.018548,14.027132,14.0408,14.050963,14.0549,14.050818,14.064181,14.058682,14.035273,13.843498,13.603333,12.604668,10.635239,8.161599
11.969916,13.836613,14.060244,14.1555195,14.108722,14.1232195,14.169887,14.2102165,14.226367,14.256086,14.27861,14.297722,14.304059,14.304592,14.299073,14.295189,14.292193,14.290375,14.292908,14.2996855,14.304409,14.303694,14.299949,14.296322,14.286359,14.276073,14.258529,14.2438755,14.228707,14.220846,14.213239,14.20911,14.202903,14.195459,14.185826,14.173328,14.160777,14.146345,14.135018,14.123902,14.117783,14.111566,14.108465,14.102485,14.097331,14.086384,14.076246,14.064806,14.05983,14.06932,14.081884,14.098581,14.059179,14.194754,13.656391,12.234321,9.781323
12.432247,13.741928,13.844506,13.928859,13.984706,14.043878,14.061984,14.067206,14.053202,14.053219,14.061407,14.071564,14.080497,14.086141,14.089101,14.091614,14.096068,14.101619,14.111934,14.122974,14.134242,14.139077,14.145225,14.149984,14.152071,14.150286,14.144357,14.13739,14.12992,14.124851,14.117165,14.110384,14.103044,14.096529,14.089403,14.082462,14.076245,14.07112,14.068403,14.066821,14.066313,14.066677,14.067616,14.068081,14.067738,14.067929,14.068382,14.066203,14.06211,14.055218,14.045075,14.044789,14.0038185,14.086957,13.647271,12.69526,10.535146
12.903233,13.845066,13.887298,13.942115,14.012163,14.059638,14.052261,14.048325,14.042441,14.042351,14.046412,14.05149,14.055993,14.0589,14.060118,14.060008,14.062014,14.0661335,14.075273,14.085397,14.096229,14.101169,14.108195,14.114031,14.117728,14.117128,14.112923,14.107116,14.10012,14.094373,14.08468,14.075685,14.0668745,14.060253,14.053939,14.048691,14.043983,14.040491,14.038904,14.038402,14.038361,14.03986,14.041912,14.044702,14.046346,14.051756,14.057579,14.063258,14.064793,14.061264,14.050312,14.040229,14.000944,14.079109,13.741145,13.133228,11.165191
12.960219,13.821773,13.913774,13.9793415,14.009305,14.02462,14.009527,14.0169115,14.03444,14.045264,14.046719,14.046585,14.043456,14.040951,14.038443,14.035157,14.034668,14.036988,14.044313,14.053093,14.062147,14.065813,14.070665,14.074697,14.075725,14.073194,14.066321,14.058693,14.049535,14.042567,14.031764,14.022573,14.013955,14.008366,14.003755,14.000411,13.997051,13.994364,13.992951,13.992207,13.991703,13.993153,13.995579,13.999482,14.002231,14.00999,14.018124,14.028805,14.036115,14.0479765,14.0495615,14.03496,13.982612,14.044826,13.719662,13.183406,11.273871
13.076349,13.856337,13.941966,13.984817,13.985723,13.993489,13.995616,14.009226,14.022763,14.028605,14.024367,14.01685,14.007488,13.999311,13.994056,13.990911,13.991331,13.992939,13.998713,14.005948,14.013673,14.016994,14.021669,14.025637,14.027372,14.025892,14.020907,14.014994,14.008098,14.002981,13.995214,13.9887085,13.982663,13.978557,13.974683,13.971491,13.968507,13.966041,13.964634,13.96378,13.963103,13.96467,13.967459,13.971932,13.975138,13.983153,13.991135,13.998325,14.002211,14.020186,14.032575,14.0261755,13.978908,14.032337,13.727565,13.290077,11.446755
13.075245,13.882566,13.94244,13.958041,13.946833,13.963265,13.989046,14.003525,13.999743,13.99381,13.984654,13.972989,13.962544,13.952394,13.946909,13.945893,13.948624,13.950506,13.955593,13.961853,13.968983,13.972525,13.977875,13.982404,13.985879,13.986262,13.984316,13.980945,13.97741,13.97494,13.9712715,13.968141,13.965123,13.962357,13.958609,13.954793,13.951738,13.94934,13.948037,13.947354,13.946808,13.948568,13.951556,13.9559965,13.959038,13.965872,13.972244,13.973068,13.970429,13.9867325,14.003975,14.010597,13.975602,14.025804,13.7222595,13.3124485,11.493877
13.012954,13.905652,13.935245,13.932787,13.930463,13.949759,13.971814,13.979348,13.968925,13.957125,13.946635,13.938642,13.934688,13.929256,13.92611,13.925321,13.926848,13.927985,13.9321165,13.937657,13.944116,13.947391,13.952307,13.95643,13.959608,13.959981,13.958116,13.954891,13.951461,13.949084,13.94585,13.943243,13.940714,13.938238,13.934567,13.930799,13.927985,13.925863,13.924704,13.924151,13.923677,13.925559,13.928664,13.9332,13.936238,13.943325,13.950053,13.952058,13.9502325,13.962274,13.975277,13.98714,13.9615,14.014773,13.717271,13.323137,11.523229
12.8924055,13.924035,13.92297,13.907242,13.923,13.943792,13.951567,13.949226,13.936428,13.922871,13.914115,13.911624,13.91446,13.914599,13.913999,13.912713,13.912191,13.912462,13.915846,13.920981,13.926958,13.929901,13.93411,13.937558,13.939752,13.939419,13.93655,13.932601,13.928107,13.924913,13.920721,13.917535,13.914587,13.912115,13.90863,13.905305,13.902948,13.901318,13.900479,13.900176,13.899797,13.901731,13.904842,13.909306,13.912192,13.919665,13.927128,13.932699,13.934227,13.941504,13.9474,13.960723,13.942182,14.003452,13.71153,13.310648,11.518369
12.790977,13.945764,13.922224,13.891387,13.912841,13.933345,13.935705,13.928155,13.912843,13.899681,13.893312,13.890481,13.891769,13.891158,13.890081,13.888296,13.887223,13.886964,13.889728,13.894396,13.899917,13.902666,13.9065075,13.909601,13.911418,13.910911,13.907936,13.904026,13.899541,13.896396,13.892415,13.889582,13.887193,13.885352,13.882453,13.8797455,13.877998,13.877016,13.876691,13.876782,13.876522,13.878518,13.881669,13.885994,13.888639,13.8959055,13.90333,13.909731,13.9122925,13.918848,13.923881,13.939293,13.925479,13.994649,13.709077,13.302603,11.51832
12.693697,13.959769,13.91888,13.875488,13.900395,13.920469,13.91919,13.908166,13.891303,13.879404,13.8754,13.87101,13.8690605,13.866503,13.864575,13.86265,13.861774,13.8614025,13.863902,13.86827,13.873529,13.876243,13.879921,13.882789,13.884423,13.883878,13.88105,13.877397,13.873191,13.8702755,13.866712,13.8643675,13.862698,13.861588,13.859331,13.857241,13.856097,13.855731,13.8559,13.856297,13.856041,13.857904,13.860934,13.864868,13.867077,13.873779,13.880856,13.887302,13.890336,13.897558,13.90364,13.920825,13.91055,13.985474,13.709688,13.311679,11.549482
12.646343,13.958849,13.909922,13.861795,13.889776,13.910283,13.906837,13.894011,13.876372,13.864134,13.860326,13.855552,13.853186,13.850541,13.848845,13.847298,13.846829,13.846665,13.84923,13.853522,13.858738,13.861528,13.865199,13.867961,13.869538,13.869015,13.866377,13.86297,13.859009,13.8562565,13.852966,13.850914,13.849661,13.84895,13.8470125,13.845207,13.844359,13.844267,13.844643,13.845076,13.844698,13.846275,13.849064,13.852531,13.854327,13.860528,13.867317,13.8736515,13.876907,13.88489,13.892122,13.91069,13.902692,13.977433,13.712065,13.342974,11.61414
12.572968,13.9571495,13.897959,13.84384,13.876067,13.897891,13.892386,13.878152,13.860202,13.848985,13.846781,13.84257,13.840199,13.838077,13.8371525,13.83648,13.836895,13.837339,13.840349,13.844793,13.850208,13.853232,13.857086,13.85986,13.861507,13.861065,13.8586855,13.855559,13.85186,13.849252,13.846178,13.844331,13.843374,13.842913,13.841111,13.839404,13.838724,13.838763,13.839211,13.839521,13.838911,13.84007,13.842538,13.845393,13.846645,13.852154,13.85852,13.864642,13.867956,13.875188,13.881899,13.901327,13.896043,13.971416,13.716306,13.370056,11.677372
12.50311,13.960983,13.891501,13.8309145,13.866732,13.889967,13.8831415,13.867721,13.849339,13.840282,13.841125,13.83817,13.835809,13.834345,13.834193,13.834314,13.8355255,13.836561,13.84008,13.844786,13.850494,13.853754,13.85784,13.860709,13.862474,13.862098,13.859855,13.856845,13.853234,13.850641,13.847581,13.845725,13.8447895,13.844323,13.842439,13.840654,13.839992,13.84004,13.840471,13.840662,13.839902,13.840827,13.843143,13.845645,13.846547,13.851612,13.857698,13.863789,13.867103,13.872277,13.876796,13.896237,13.893106,13.97103,13.720182,13.373073,11.696895
12.396303,13.9560585,13.877185,13.811134,13.851745,13.876856,13.868155,13.853772,13.838028,13.831575,13.834007,13.832183,13.830269,13.829692,13.830532,13.831694,13.83395,13.835776,13.839954,13.844957,13.851023,13.854605,13.859008,13.8619995,13.863945,13.863691,13.861747,13.85903,13.855719,13.853297,13.850476,13.8488035,13.848096,13.847744,13.845817,13.843891,13.843175,13.843063,13.843299,13.843052,13.841852,13.842135,13.844015,13.8457575,13.846036,13.850203,13.855653,13.86138,13.864465,13.866426,13.867592,13.886714,13.886205,13.967737,13.721374,13.368797,11.710788
12.314036,13.945287,13.863061,13.7956295,13.839666,13.866096,13.855943,13.844183,13.8326235,13.827551,13.829002,13.827415,13.826099,13.826079,13.82753,13.829358,13.832293,13.834642,13.839232,13.844389,13.85066,13.8544655,13.859083,13.862148,13.864223,13.8640785,13.862426,13.860009,13.8570385,13.854851,13.852374,13.850987,13.850614,13.850456,13.84858,13.8465605,13.8457775,13.8454485,13.845438,13.8447,13.843022,13.842626,13.844025,13.845035,13.844765,13.848085,13.852899,13.858131,13.860896,13.8604145,13.859083,13.877786,13.878888,13.963088,13.71895,13.359606,11.711012
12.224246,13.925705,13.846081,13.779877,13.824619,13.851061,13.840021,13.832077,13.826001,13.823441,13.824466,13.823739,13.823393,13.824339,13.826681,13.829382,13.833125,13.836097,13.841133,13.846397,13.852821,13.856828,13.8616495,13.864783,13.86702,13.867027,13.865776,13.863775,13.861278,13.859406,13.85734,13.856237,13.856144,13.856056,13.854057,13.851724,13.850676,13.849897,13.849456,13.848015,13.845726,13.844474,13.845278,13.84541,13.844501,13.846884,13.851026,13.855694,13.858108,13.855389,13.851842,13.870209,13.872909,13.957416,13.718381,13.367605,11.740829
12.180527,13.908349,13.835842,13.772903,13.815308,13.840507,13.829667,13.824657,13.82234,13.82191,13.823126,13.823317,13.82375,13.82548,13.828448,13.831695,13.835881,13.839198,13.844428,13.849681,13.856097,13.860162,13.865048,13.868205,13.870535,13.870649,13.869687,13.867989,13.865839,13.864192,13.862388,13.861424,13.861417,13.861242,13.859031,13.856343,13.854982,13.853774,13.852959,13.850994,13.848293,13.846494,13.846924,13.846528,13.845253,13.847131,13.850933,13.855266,13.857486,13.854034,13.849842,13.8681345,13.871456,13.953651,13.719621,13.388099,11.782754
12.144483,13.888857,13.82215,13.762233,13.803111,13.827435,13.816651,13.8153925,13.817955,13.82014,13.821383,13.822466,13.823626,13.826075,13.829595,13.833336,13.837893,13.841472,13.846763,13.851864,13.858127,13.862182,13.86705,13.870169,13.872576,13.872832,13.872278,13.871027,13.869411,13.868138,13.866808,13.866149,13.86639,13.8661995,13.863779,13.860659,13.858904,13.857115,13.855771,13.853054,13.849742,13.847166,13.8471,13.845976,13.844179,13.845277,13.848514,13.852244,13.854126,13.849857,13.845058,13.863294,13.867405,13.94566,13.719623,13.42136,11.847906
12.142913,13.876749,13.8126745,13.754534,13.794833,13.819103,13.8088,13.81015,13.81574,13.819564,13.820772,13.822292,13.823737,13.826441,13.830097,13.833962,13.838541,13.842096,13.847199,13.852026,13.858009,13.86196,13.866704,13.869722,13.872149,13.872523,13.87233,13.871481,13.870351,13.869429,13.868568,13.868235,13.868752,13.86859,13.866038,13.862587,13.860525,13.858275,13.856508,13.8532,13.849417,13.846274,13.845876,13.844244,13.842072,13.842568,13.845341,13.848538,13.85013,13.845581,13.840731,13.8589735,13.863505,13.937218,13.718852,13.456654,11.912206
12.151771,13.863345,13.802037,13.745892,13.785404,13.810819,13.802843,13.807004,13.814428,13.81947,13.820752,13.822631,13.824232,13.826994,13.830557,13.834345,13.8387,13.841991,13.846599,13.85089,13.856353,13.860106,13.864617,13.867452,13.869903,13.87049,13.870893,13.870693,13.8703165,13.869918,13.86978,13.869953,13.870873,13.870754,13.868016,13.864121,13.86167,13.85886,13.856588,13.852614,13.848322,13.844598,13.843879,13.841738,13.839168,13.838994,13.841225,13.843812,13.845081,13.840247,13.835379,13.853589,13.858592,13.924908,13.718149,13.513243,12.011807
12.182159,13.853972,13.794263,13.739738,13.778741,13.805939,13.800985,13.807026,13.814536,13.820027,13.821542,13.823635,13.825253,13.827923,13.831266,13.834873,13.838915,13.841859,13.845922,13.8496895,13.854651,13.858216,13.862499,13.865146,13.867627,13.868443,13.869438,13.86987,13.870219,13.870311,13.870868,13.871528,13.872808,13.872706,13.86979,13.865493,13.862685,13.859397,13.856703,13.852218,13.84756,13.843442,13.842523,13.840051,13.837214,13.836545,13.838349,13.840472,13.841507,13.836492,13.831635,13.849764,13.855084,13.913891,13.71829,13.570056,12.110019
12.230595,13.844319,13.785698,13.732893,13.7716465,13.800324,13.797831,13.805714,13.813733,13.820017,13.821984,13.824544,13.826386,13.82921,13.832574,13.8362255,13.840181,13.842958,13.846682,13.850086,13.854716,13.858185,13.862331,13.864838,13.867389,13.868438,13.870012,13.87105,13.872095,13.872662,13.873872,13.874968,13.876541,13.876392,13.87325,13.8685,13.865275,13.861444,13.858291,13.853272,13.848253,13.84373,13.842583,13.839759,13.836661,13.835506,13.836892,13.838588,13.839404,13.833982,13.8288965,13.847044,13.85293,13.904107,13.719877,13.628585,12.212362
12.286684,13.833845,13.778131,13.728336,13.766536,13.796483,13.7964,13.805878,13.814149,13.821145,13.823673,13.826804,13.828997,13.83214,13.835706,13.839572,13.843634,13.846409,13.850003,13.853228,13.857703,13.861151,13.865249,13.867669,13.870334,13.871618,13.873731,13.875311,13.876989,13.877988,13.879803,13.881297,13.883106,13.882872,13.879505,13.874323,13.870678,13.866292,13.862661,13.857098,13.8517275,13.846779,13.845363,13.84215,13.838788,13.837132,13.838091,13.839391,13.840022,13.834109,13.828577,13.846271,13.852283,13.897465,13.722652,13.675203,12.296956
12.332293,13.822347,13.772259,13.726934,13.763987,13.795043,13.797571,13.808657,13.817041,13.824575,13.827522,13.831138,13.833677,13.837154,13.840968,13.845082,13.849317,13.852173,13.85575,13.858889,13.863294,13.866744,13.87083,13.873201,13.875997,13.877509,13.880112,13.882175,13.884424,13.88582,13.88821,13.890099,13.892141,13.891845,13.888303,13.882744,13.87873,13.87381,13.869691,13.86353,13.857753,13.852286,13.85052,13.846812,13.843103,13.840841,13.8413,13.842152,13.842576,13.836088,13.829918,13.846497,13.851982,13.893352,13.725356,13.705533,12.355399
12.366316,13.807051,13.765096,13.725564,13.760861,13.792806,13.798082,13.810765,13.819156,13.827213,13.830645,13.83483,13.837811,13.841722,13.845873,13.850309,13.854772,13.857742,13.861332,13.864412,13.868752,13.872192,13.876253,13.878576,13.881508,13.883255,13.886352,13.888891,13.891722,13.893535,13.896528,13.898829,13.901095,13.900715,13.896999,13.891072,13.886673,13.881204,13.876584,13.869838,13.863692,13.857739,13.855632,13.851463,13.847458,13.844629,13.844602,13.845059,13.845362,13.838673,13.832166,13.84728,13.851715,13.890327,13.728266,13.727476,12.403944
12.380805,13.794329,13.758723,13.723451,13.757281,13.78971,13.796891,13.810623,13.818953,13.827365,13.8311615,13.835734,13.838996,13.843178,13.8475275,13.852149,13.856704,13.859679,13.863193,13.866182,13.87042,13.873812,13.877811,13.880077,13.883079,13.884982,13.8884115,13.891282,13.894512,13.89661,13.900016,13.902591,13.904975,13.904493,13.900629,13.894429,13.8897505,13.883922,13.878992,13.871942,13.865644,13.859509,13.857263,13.852932,13.848846,13.845787,13.845524,13.845834,13.846167,13.839839,13.833576,13.847646,13.851081,13.887671,13.73011,13.742731,12.440159
12.381654,13.776856,13.748965,13.718599,13.750646,13.783279,13.792201,13.807011,13.815476,13.824514,13.828953,13.834305,13.838213,13.84302,13.847849,13.852907,13.857758,13.860881,13.864403,13.867316,13.871439,13.8747635,13.878686,13.880887,13.883981,13.886076,13.889901,13.893163,13.89691,13.899409,13.903372,13.90633,13.90892,13.908393,13.904458,13.898013,13.893019,13.886737,13.881419,13.873951,13.867425,13.860973,13.858473,13.853864,13.849649,13.846248,13.845645,13.845724,13.846088,13.840247,13.834436,13.847742,13.850414,13.885621,13.732143,13.753126,12.472711
12.373472,13.763465,13.740629,13.713376,13.74428,13.776763,13.78639,13.801808,13.810602,13.8202715,13.825334,13.831506,13.836133,13.841636,13.847017,13.852583,13.8578205,13.861199,13.864846,13.867761,13.871844,13.875142,13.879033,13.881204,13.8843775,13.886612,13.890718,13.894251,13.898393,13.901219,13.90563,13.908907,13.911711,13.91122,13.907326,13.900769,13.89556,13.88892,13.8832855,13.875434,13.86866,13.861849,13.859061,13.854124,13.849743,13.845979,13.845049,13.84486,13.845186,13.839534,13.833992,13.847172,13.849785,13.884531,13.73315,13.756091,12.489724
12.357702,13.746296,13.730667,13.707755,13.737028,13.769599,13.780624,13.797022,13.806091,13.816479,13.822279,13.829464,13.834993,13.841356,13.847399,13.853546,13.859197,13.862833,13.866537,13.869342,13.873242,13.876417,13.88019,13.882297,13.885565,13.887993,13.892499,13.896422,13.901118,13.904399,13.909413,13.9131155,13.916209,13.915786,13.911979,13.905321,13.899876,13.892837,13.886869,13.878602,13.8715515,13.864315,13.861173,13.855861,13.851319,13.847156,13.845843,13.845402,13.845768,13.840492,13.835407,13.848538,13.851129,13.88661,13.736479,13.753962,12.499106
12.344283,13.735015,13.724828,13.70515,13.733195,13.766034,13.77837,13.795559,13.804679,13.815451,13.8216715,13.829463,13.835549,13.84243,13.848856,13.855317,13.861161,13.864909,13.8685665,13.87122,13.8749,13.87793,13.881569,13.883619,13.886944,13.889511,13.894306,13.898518,13.903609,13.907205,13.91263,13.916617,13.919907,13.919537,13.915801,13.909108,13.903533,13.896282,13.890154,13.881673,13.874471,13.866989,13.863629,13.858113,13.85351,13.849138,13.847611,13.847079,13.847544,13.842625,13.837922,13.851061,13.853635,13.890525,13.740214,13.748652,12.496552
12.329306,13.724927,13.718782,13.701383,13.728335,13.762148,13.776679,13.79515,13.804243,13.815439,13.822107,13.830564,13.8372345,13.8446,13.851326,13.8580475,13.863986,13.867743,13.871176,13.873492,13.8767605,13.879549,13.882935,13.884832,13.888158,13.890874,13.896028,13.900618,13.9062,13.910172,13.916091,13.920417,13.923925,13.923603,13.919942,13.913212,13.907497,13.900054,13.893815,13.885218,13.877955,13.870321,13.866783,13.861143,13.856563,13.852048,13.850317,13.849725,13.850324,13.845881,13.841682,13.854899,13.857506,13.896662,13.745561,13.739487,12.488515
12.321418,13.722133,13.716315,13.698927,13.725554,13.760478,13.776812,13.7962885,13.805268,13.816653,13.823512,13.832281,13.839209,13.8467245,13.853485,13.860245,13.866121,13.869772,13.872928,13.874922,13.877822,13.880419,13.883577,13.885322,13.888595,13.891385,13.896764,13.90161,13.907498,13.911688,13.9179,13.922422,13.926051,13.92575,13.92213,13.915394,13.909616,13.902127,13.8959,13.887358,13.88016,13.872557,13.868977,13.863369,13.858881,13.854371,13.852564,13.851978,13.852675,13.848553,13.844695,13.858027,13.86071,13.901785,13.749593,13.731291,12.478501
12.312935,13.719817,13.714991,13.69798,13.724084,13.760245,13.77871,13.799239,13.807903,13.819314,13.826271,13.835294,13.842467,13.850112,13.856898,13.863711,13.869543,13.87311,13.875986,13.877617,13.88012,13.882528,13.885489,13.887111,13.890422,13.89339,13.899173,13.904437,13.910836,13.915394,13.922104,13.926981,13.930878,13.930694,13.927228,13.920564,13.914765,13.907239,13.901032,13.892512,13.885334,13.8776455,13.873907,13.868193,13.863726,13.859076,13.857064,13.856389,13.857176,13.853396,13.84996,13.863584,13.866523,13.91049,13.756344,13.71932,12.462504
12.31003,13.720162,13.716037,13.699314,13.725048,13.762,13.781851,13.8029,13.811129,13.822287,13.829111,13.838079,13.845264,13.85285,13.859564,13.866336,13.872104,13.875608,13.87831,13.879706,13.881975,13.884288,13.887171,13.888752,13.892152,13.895286,13.901416,13.907019,13.913829,13.918678,13.9257765,13.93094,13.935073,13.93503,13.931734,13.925196,13.919447,13.911966,13.905834,13.897369,13.890213,13.88244,13.87855,13.872705,13.868218,13.863414,13.861215,13.860447,13.861294,13.857736,13.854603,13.868561,13.871817,13.918337,13.762174,13.708444,12.446643
12.3112,13.720582,13.717754,13.701705,13.726865,13.764616,13.786043,13.807481,13.814937,13.825491,13.831915,13.840506,13.847457,13.854757,13.861225,13.867784,13.873348,13.876709,13.879176,13.880301,13.8823,13.884496,13.887283,13.888823,13.892308,13.8956,13.902071,13.90801,13.915205,13.920309,13.92773,13.933108,13.9374075,13.937469,13.934341,13.92797,13.92233,13.915014,13.909095,13.900869,13.893872,13.8861475,13.882158,13.876281,13.8718605,13.86701,13.864694,13.863956,13.864979,13.861835,13.859175,13.873629,13.877321,13.927344,13.768461,13.692118,12.423399
12.31669,13.721208,13.719917,13.704853,13.729559,13.767873,13.79045,13.811986,13.818615,13.828415,13.834299,13.842301,13.84884,13.855719,13.861854,13.868102,13.8734,13.876587,13.878843,13.879755,13.881547,13.883645,13.886354,13.887864,13.891393,13.894775,13.901447,13.907586,13.914993,13.920222,13.927783,13.933244,13.937596,13.937714,13.934707,13.928517,13.923025,13.915964,13.910339,13.90246,13.895702,13.88814,13.884137,13.878316,13.874,13.869178,13.866811,13.866164,13.867379,13.864633,13.8623905,13.87721,13.881203,13.934429,13.77298,13.675254,12.400448
12.324834,13.720887,13.721606,13.708002,13.732325,13.771474,13.795507,13.817356,13.823188,13.832302,13.83768,13.845134,13.851277,13.857747,13.863553,13.869499,13.87452,13.877509,13.879514,13.88018,13.881723,13.883704,13.886302,13.887754,13.891295,13.894751,13.901608,13.90794,13.915545,13.920892,13.928599,13.9341545,13.938567,13.938744,13.9358635,13.929866,13.924542,13.917768,13.91246,13.904965,13.898478,13.891112,13.887121,13.881371,13.877151,13.872317,13.869844,13.869225,13.870581,13.868191,13.866297,13.881206,13.885217,13.941403,13.777547,13.658457,12.37948
12.328096,13.72064,13.723637,13.711812,13.736071,13.775891,13.800825,13.822708,13.827802,13.836208,13.841056,13.847924,13.853647,13.859716,13.865213,13.870866,13.87561,13.8784,13.880144,13.880557,13.881825,13.88365,13.886084,13.887447,13.890927,13.894392,13.901322,13.907754,13.915454,13.9208555,13.928635,13.93424,13.9386835,13.93892,13.936176,13.9304085,13.925296,13.918865,13.913921,13.906854,13.90065,13.893505,13.889554,13.883874,13.879729,13.8748455,13.872232,13.871604,13.873084,13.871021,13.869428,13.884293,13.8882065,13.947946,13.781106,13.635475,12.351869
12.323193,13.720482,13.725564,13.715382,13.739834,13.779951,13.805007,13.826513,13.830927,13.838598,13.842911,13.849186,13.854498,13.860197,13.865424,13.870806,13.875302,13.877915,13.879423,13.879603,13.880599,13.882255,13.884511,13.885781,13.889186,13.8926325,13.899582,13.90606,13.913812,13.919246,13.927068,13.932709,13.937178,13.937487,13.934899,13.929371,13.924474,13.918366,13.913766,13.907075,13.901104,13.894125,13.890189,13.884549,13.880457,13.875507,13.872757,13.872141,13.873776,13.87205,13.8707905,13.885775,13.889789,13.954018,13.783415,13.605664,12.314715
12.309309,13.72269,13.729943,13.721462,13.746399,13.7866535,13.811303,13.832154,13.835924,13.842815,13.846559,13.852212,13.857123,13.862497,13.867517,13.872668,13.876935,13.879388,13.880642,13.880559,13.881206,13.882614,13.884586,13.885692,13.88891,13.892262,13.899115,13.905556,13.913269,13.918691,13.926487,13.932125,13.936598,13.936992,13.934591,13.929368,13.924758,13.919082,13.914924,13.908705,13.903011,13.896227,13.892319,13.8867,13.882622,13.877526,13.874567,13.873894,13.875655,13.874237,13.873282,13.888273,13.892295,13.961799,13.786656,13.569905,12.271146
12.29548,13.725622,13.734424,13.727147,13.752548,13.792909,13.817151,13.837529,13.840913,13.8473,13.850668,13.855936,13.860631,13.865857,13.870808,13.875857,13.880006,13.882377,13.883463,13.883182,13.883542,13.884737,13.886445,13.887386,13.890406,13.893644,13.900361,13.906732,13.914364,13.919742,13.92747,13.933067,13.93751,13.937954,13.935685,13.930706,13.926333,13.921024,13.917243,13.911424,13.905964,13.899345,13.89546,13.889831,13.885733,13.880464,13.877285,13.876483,13.878273,13.8770075,13.876208,13.891036,13.894909,13.968067,13.789746,13.544801,12.241675
12.276369,13.733746,13.744048,13.737846,13.763822,13.804297,13.828004,13.84777,13.850669,13.856419,13.85931,13.864051,13.868419,13.873433,13.878282,13.883178,13.887147,13.88938,13.890212,13.889661,13.889619,13.890502,13.891807,13.892487,13.895185,13.89824,13.904738,13.9109955,13.918505,13.923831,13.931495,13.93708,13.94154,13.942097,13.940018,13.935369,13.9313345,13.926535,13.923264,13.917985,13.912836,13.906466,13.90266,13.897066,13.89295,13.8875,13.884084,13.883166,13.885008,13.883922,13.883271,13.897848,13.901447,13.978854,13.796527,13.516474,12.209439
12.263879,13.742425,13.753346,13.747577,13.773999,13.814626,13.838016,13.857369,13.859898,13.8651905,13.867737,13.872057,13.876133,13.8809595,13.885702,13.890456,13.894258,13.896354,13.896968,13.896213,13.895864,13.8965025,13.897487,13.897955,13.900403,13.903312,13.909652,13.915837,13.923275,13.928586,13.9362545,13.941885,13.946417,13.9471,13.945174,13.940769,13.936999,13.932586,13.929693,13.924817,13.919904,13.913747,13.91004,13.904518,13.900414,13.894885,13.891343,13.890391,13.892299,13.891349,13.890789,13.905177,13.908537,13.988726,13.80351,13.498877,12.1897955
12.241005,13.754968,13.76754,13.762461,13.788937,13.829401,13.852319,13.871001,13.872937,13.877505,13.879504,13.883155,13.886758,13.891249,13.895788,13.900306,13.903844,13.905722,13.90601,13.904958,13.904168,13.904464,13.904984,13.90514,13.907198,13.909872,13.915932,13.921967,13.9292345,13.934471,13.942078,13.947727,13.952326,13.953172,13.951463,13.947406,13.944015,13.940135,13.937746,13.933394,13.928767,13.922866,13.9192705,13.913818,13.909709,13.904085,13.900417,13.899489,13.901542,13.900832,13.900445,13.914695,13.91787,14.002076,13.812954,13.473635,12.1625595
12.220762,13.763699,13.777987,13.773473,13.799604,13.839703,13.8622675,13.88042,13.881899,13.8859005,13.887481,13.890617,13.893853,13.898067,13.902435,13.906769,13.91011,13.91182,13.911868,13.910604,13.909501,13.909553,13.909739,13.909662,13.911419,13.913905,13.919728,13.925621,13.932722,13.937866,13.94538,13.95101,13.955631,13.956586,13.955029,13.951225,13.948105,13.944597,13.942546,13.938532,13.934078,13.92832,13.92478,13.919348,13.915215,13.909533,13.90581,13.9049425,13.907139,13.906644,13.906418,13.920655,13.923811,14.010979,13.819288,13.455535,12.143692
12.197132,13.777308,13.794807,13.791473,13.816727,13.856026,13.878048,13.895293,13.895971,13.898984,13.899819,13.902038,13.904597,13.908252,13.912246,13.91622,13.9192095,13.920636,13.920311,13.918726,13.917178,13.916891,13.916638,13.916274,13.917648,13.919889,13.925397,13.931098,13.937969,13.94298,13.950318,13.955859,13.960465,13.961537,13.960156,13.956665,13.953883,13.950868,13.9493,13.945774,13.941574,13.936045,13.932615,13.927255,13.923119,13.917377,13.913573,13.912763,13.915114,13.91483,13.9147625,13.929037,13.9321575,14.023724,13.827316,13.424647,12.109567
12.183235,13.788026,13.808353,13.80607,13.830369,13.86887,13.890481,13.906976,13.906979,13.909157,13.909362,13.9108,13.91277,13.915908,13.919544,13.92319,13.9258795,13.927068,13.926453,13.9246235,13.922754,13.922229,13.921684,13.921141,13.922269,13.924343,13.929634,13.935196,13.941902,13.946806,13.953976,13.959404,13.963957,13.965084,13.96379,13.960487,13.957907,13.9552145,13.953983,13.950807,13.946786,13.941427,13.938093,13.932807,13.928685,13.92291,13.9190445,13.918252,13.920677,13.920474,13.920459,13.934836,13.937913,14.032518,13.831828,13.398574,12.079962
12.15914,13.804438,13.827806,13.826122,13.848952,13.886303,13.907437,13.923044,13.922264,13.923466,13.922939,13.923481,13.924781,13.927325,13.930529,13.933764,13.93606,13.936938,13.935922,13.933748,13.931414,13.930546,13.929567,13.928755,13.9295025,13.931314,13.93625,13.941576,13.947977,13.95267,13.959518,13.964713,13.969107,13.970228,13.968981,13.96586,13.963495,13.961172,13.960338,13.95755,13.9537,13.948476,13.945198,13.939908,13.935728,13.929809,13.9257965,13.924937,13.927394,13.927161,13.927097,13.942034,13.944676,14.039798,13.830378,13.356846,12.03644
12.138186,13.818788,13.843866,13.841931,13.863373,13.899709,13.920548,13.93556,13.934255,13.934796,13.933777,13.933727,13.934582,13.93671,13.939585,13.942499,13.944467,13.945081,13.943719,13.941245,13.938507,13.93734,13.935985,13.934936,13.935342,13.936919,13.941524,13.946621,13.952718,13.957186,13.963713,13.968662,13.972862,13.973921,13.972651,13.969619,13.967374,13.965273,13.964689,13.962129,13.958355,13.953161,13.949878,13.944518,13.9402485,13.934155,13.929986,13.929,13.931412,13.931014,13.930794,13.946448,13.948541,14.041509,13.823618,13.321002,12.001915
12.112021,13.83793,13.864604,13.861759,13.881209,13.916144,13.9366865,13.950959,13.948974,13.948661,13.946993,13.946176,13.946432,13.947973,13.950343,13.952769,13.954208,13.954374,13.952429,13.94947,13.94609,13.944456,13.942507,13.94108,13.940965,13.942191,13.946305,13.951057,13.956709,13.960868,13.966972,13.971632,13.975609,13.976627,13.975378,13.972509,13.970457,13.968673,13.968414,13.9661455,13.962477,13.957337,13.954062,13.948647,13.944296,13.938014,13.93366,13.932517,13.934859,13.934203,13.933754,13.950197,13.951866,14.043089,13.816289,13.279738,11.963818
12.093526,13.855838,13.883498,13.879438,13.896895,13.930437,13.950751,13.964384,13.961812,13.960757,13.958525,13.957038,13.956764,13.957758,13.959635,13.961585,13.962499,13.962206,13.959676,13.95624,13.952229,13.950133,13.9476,13.945803,13.94518,13.946067,13.9496975,13.954107,13.959327,13.963189,13.968899,13.973293,13.977064,13.978037,13.9768,13.974059,13.972157,13.970608,13.970583,13.9685135,13.964905,13.959786,13.956507,13.951035,13.946619,13.940166,13.9356365,13.934303,13.936507,13.935478,13.934699,13.951726,13.953096,14.042205,13.8091135,13.249294,11.94059
12.07882,13.875292,13.9046545,13.899744,13.914901,13.946839,13.9669075,13.979815,13.976572,13.974673,13.971803,13.96955,13.96867,13.969044,13.970384,13.971829,13.972207,13.971461,13.968357,13.96445,13.95981,13.95725,13.954138,13.951994,13.950811,13.951263,13.954405,13.958549,13.963378,13.966944,13.972231,13.976306,13.979815,13.980688,13.979407,13.976737,13.974929,13.973557,13.973732,13.971823,13.968247,13.963123,13.9598255,13.95427,13.949763,13.943086,13.938329,13.936693,13.938654,13.937066,13.935792,13.9532995,13.954235,14.040275,13.801045,13.220138,11.922573
12.077722,13.896017,13.926727,13.920981,13.93395,13.964121,13.983672,13.995705,13.991824,13.989074,13.985558,13.982534,13.981053,13.980826,13.981646,13.982593,13.982445,13.98126,13.977613,13.973281,13.968049,13.965022,13.961318,13.958797,13.957179,13.957403,13.960032,13.963701,13.968021,13.971288,13.976155,13.979933,13.98319,13.983961,13.982632,13.980006,13.978261,13.976996,13.977285,13.9754505,13.971862,13.966697,13.963372,13.957727,13.953127,13.946242,13.941279,13.939328,13.940991,13.938746,13.936863,13.954642,13.955021,14.036484,13.793157,13.201522,11.923059
12.086011,13.916298,13.947475,13.940724,13.951976,13.980351,13.998979,14.01,14.00562,14.002111,13.998023,13.99434,13.992368,13.991671,13.992088,13.992617,13.992012,13.990444,13.986329,13.981646,13.975893,13.9724655,13.968031,13.964838,13.962721,13.962927,13.964882,13.9677105,13.971498,13.974719,13.979485,13.983226,13.986356,13.987037,13.985712,13.983169,13.981509,13.980347,13.980713,13.978906,13.975289,13.970068,13.966708,13.960975,13.95629,13.94924,13.944126,13.941934,13.943358,13.940548,13.938116,13.956095,13.955926,14.032438,13.786379,13.190216,11.933232
12.105668,13.939991,13.971215,13.963298,13.972836,13.999382,14.01709,14.027018,14.022028,14.017629,14.012859,14.008352,14.00574,14.004425,14.004306,14.00428,14.003085,14.001024,13.9963455,13.991268,13.984913,13.980901,13.976041,13.972808,13.971013,13.971737,13.973376,13.975294,13.978005,13.980422,13.98425,13.987446,13.990288,13.991011,13.989697,13.987227,13.985646,13.984552,13.984948,13.98313,13.979476,13.974214,13.970842,13.96507,13.96034,13.953215,13.948034,13.945654,13.9468355,13.943439,13.940384,13.958385,13.957413,14.026941,13.779666,13.187306,11.962689
12.123965,13.95894,13.9899435,13.980941,13.989083,14.014461,14.031873,14.041126,14.035559,14.030403,14.025032,14.019754,14.016495,14.014542,14.013857,14.013265,14.01148,14.00893,14.003728,13.9983015,13.991423,13.986795,13.982054,13.979624,13.979062,13.980744,13.982734,13.984144,13.985415,13.986132,13.988045,13.990104,13.992678,13.993818,13.992548,13.990092,13.988567,13.98752,13.987929,13.986108,13.982441,13.97718,13.973827,13.968075,13.963356,13.956259,13.951106,13.94866,13.949693,13.945915,13.942426,13.960418,13.958787,14.0223675,13.774932,13.189032,11.99304
12.146933,13.979972,14.011582,14.002285,14.009189,14.033393,14.05034,14.058767,14.052538,14.046537,14.04052,14.034422,14.030483,14.0278425,14.026563,14.025412,14.02306,14.020039,14.014313,14.008528,14.001093,13.995774,13.991347,13.990127,13.990839,13.993125,13.995366,13.996442,13.996661,13.996077,13.9964905,13.997452,13.999029,13.999721,13.998335,13.995995,13.994442,13.993338,13.993682,13.9918,13.9881,13.982854,13.979561,13.97386,13.969149,13.962148,13.9571085,13.954527,13.955234,13.950855,13.946687,13.964234,13.961363,14.016692,13.76981,13.195291,12.039493
12.160606,13.992383,14.025345,14.016759,14.02314,14.046659,14.063117,14.070945,14.064327,14.057832,14.051461,14.044944,14.04068,14.0377035,14.036156,14.034784,14.032227,14.029029,14.023088,14.017134,14.009423,14.003747,13.999523,13.999034,14.000093,14.002148,14.004222,14.005236,14.005478,14.004948,14.005357,14.005974,14.006167,14.005553,14.004098,14.0021305,14.000489,13.999203,13.999434,13.997452,13.993696,13.988452,13.98523,13.979485,13.974616,13.967808,13.963165,13.960405,13.960515,13.95548,13.950713,13.96765,13.963626,14.012716,13.76641,13.200946,12.075238
12.184771,14.009879,14.044032,14.036233,14.042201,14.0648575,14.080506,14.087432,14.080286,14.073118,14.066275,14.059166,14.05442,14.050915,14.048916,14.047164,14.044229,14.040702,14.034354,14.0280905,14.019864,14.013539,14.0096,14.010298,14.01194,14.013635,14.015537,14.016581,14.017009,14.016692,14.017265,14.017712,14.0170765,14.0153,14.012694,14.009979,14.008275,14.007128,14.007271,14.005214,14.001448,13.996249,13.993048,13.987781,13.9836445,13.97638,13.970438,13.967508,13.968311,13.963082,13.957461,13.973414,13.967648,14.008508,13.763371,13.209868,12.126009
12.205751,14.02278,14.057147,14.049618,14.055472,14.0775585,14.092563,14.098807,14.091289,14.083647,14.076475,14.0689335,14.063814,14.059891,14.05751,14.055435,14.052165,14.048338,14.041624,14.035099,14.026391,14.019436,14.01566,14.017331,14.019492,14.020957,14.022801,14.02392,14.024508,14.024359,14.0250845,14.025594,14.025219,14.023171,14.018957,14.014772,14.013147,14.012455,14.012588,14.010509,14.006769,14.001612,13.998346,13.993826,13.990949,13.982799,13.974504,13.971485,13.973915,13.969088,13.962859,13.978057,13.971026,14.006561,13.762522,13.21677,12.161872
12.2316675,14.03756,14.072788,14.066211,14.072137,14.093553,14.107593,14.112927,14.104956,14.096603,14.088879,14.080753,14.07516,14.070615,14.067587,14.0649,14.060979,14.056619,14.049258,14.042138,14.03293,14.025657,14.022634,14.025789,14.028899,14.030221,14.032163,14.033461,14.034304,14.034346,14.035216,14.035767,14.035709,14.033422,14.027677,14.0216675,14.01903,14.017997,14.018371,14.016771,14.013305,14.008387,14.005109,14.001334,13.999639,13.990894,13.980733,13.978598,13.9834585,13.978896,13.971185,13.985046,13.975964,14.00283,13.759618,13.224931,12.212988
12.247875,14.045444,14.0817585,14.076359,14.08254,14.103592,14.116901,14.121617,14.113379,14.104546,14.096422,14.0879,14.081968,14.076936,14.07336,14.07013,14.065628,14.060815,14.052897,14.04517,14.035798,14.028872,14.026737,14.030812,14.034569,14.035879,14.038018,14.039539,14.040648,14.040856,14.041859,14.042466,14.042676,14.040364,14.034054,14.026903,14.022756,14.020757,14.021404,14.020441,14.017308,14.012764,14.009679,14.006243,14.004856,13.996048,13.985538,13.984472,13.99088,13.986473,13.9776745,13.990503,13.979698,13.999574,13.756449,13.229773,12.249881
12.270689,14.054141,14.093479,14.0910225,14.097762,14.118472,14.13075,14.134472,14.125807,14.117534,14.11025,14.1011305,14.093821,14.087629,14.083042,14.078989,14.073716,14.068312,14.059458,14.05002,14.041681,14.038997,14.038459,14.040032,14.04156,14.042159,14.044497,14.047097,14.049638,14.051059,14.053451,14.054899,14.055643,14.053308,14.047263,14.039175,14.03242,14.027638,14.02706,14.025739,14.022631,14.020194,14.020584,14.017847,14.013751,14.0036745,13.993747,13.989818,13.992743,13.991204,13.987841,14.001604,13.987452,13.996125,13.752123,13.238109,12.304597
12.290529,14.058486,14.10188,14.10319,14.110547,14.131151,14.142631,14.145621,14.136666,14.129001,14.122528,14.112924,14.104419,14.097233,14.09189,14.087394,14.081785,14.076045,14.066675,14.056095,14.049163,14.050822,14.050944,14.048512,14.046665,14.046426,14.048839,14.052561,14.056611,14.059364,14.0633335,14.065774,14.066927,14.064629,14.059553,14.051555,14.0431795,14.036076,14.033883,14.0316515,14.02838,14.027933,14.031863,14.029309,14.021658,14.010282,14.0016165,13.992601,13.988897,13.990505,13.995006,14.010234,13.992728,13.992598,13.748369,13.245498,12.349182
12.3233795,14.063371,14.11362,14.121208,14.129468,14.150049,14.16056,14.164224,14.156452,14.1461,14.13573,14.125199,14.117651,14.110314,14.104962,14.101129,14.096272,14.090413,14.081986,14.074133,14.067712,14.066834,14.063421,14.058689,14.055028,14.054544,14.056816,14.060736,14.065076,14.068148,14.072567,14.075334,14.076402,14.07424,14.07005,14.063779,14.057691,14.052283,14.050099,14.0475025,14.044484,14.042722,14.044276,14.039552,14.031247,14.02031,14.012772,13.99737,13.985093,13.987375,13.997594,14.010661,13.988106,13.981318,13.742278,13.25458,12.40412
12.361323,14.06671,14.125118,14.13979,14.148554,14.169095,14.178917,14.18181,14.173217,14.15961,14.146104,14.135311,14.129384,14.122516,14.117663,14.114913,14.1112795,14.105847,14.098885,14.094405,14.087437,14.081237,14.073388,14.068193,14.064304,14.06403,14.066063,14.069523,14.073271,14.075899,14.079894,14.082444,14.083101,14.081015,14.077296,14.073024,14.070571,14.068494,14.067213,14.064717,14.062116,14.057815,14.054746,14.047548,14.040578,14.030836,14.023741,14.003819,13.9852705,13.984675,13.994927,14.00409,13.978263,13.968628,13.736943,13.26274,12.450633
12.405807,14.0684395,14.137088,14.1600895,14.168664,14.189899,14.200471,14.196402,14.178634,14.164342,14.156147,14.146864,14.140608,14.133856,14.12916,14.126714,14.123779,14.119566,14.113055,14.107771,14.099461,14.092317,14.083605,14.07812,14.0740385,14.073794,14.075733,14.079054,14.082595,14.085062,14.088963,14.091472,14.091923,14.089701,14.0859995,14.082127,14.080443,14.079121,14.078059,14.075753,14.073457,14.068994,14.065257,14.057995,14.051676,14.042165,14.034752,14.013389,13.992595,13.985848,13.990015,13.995902,13.970104,13.956753,13.730654,13.26914,12.497423
12.463353,14.076063,14.15495,14.185828,14.193479,14.212889,14.221511,14.21001,14.184832,14.171711,14.170102,14.162645,14.155604,14.148971,14.144365,14.141866,14.1392,14.136114,14.129575,14.122271,14.112755,14.106449,14.0985775,14.093279,14.089348,14.089124,14.091019,14.094235,14.097616,14.099933,14.1036825,14.106046,14.106232,14.103647,14.099511,14.095081,14.092746,14.090957,14.089808,14.087713,14.085623,14.081966,14.079248,14.072873,14.0668125,14.056714,14.048231,14.02778,14.008105,13.993988,13.988818,13.992571,13.969468,13.95263,13.731251,13.282633,12.549727
12.518862,14.088217,14.176823,14.214619,14.220832,14.23489,14.237398,14.223767,14.200863,14.188711,14.1873665,14.180244,14.173382,14.166973,14.162517,14.160069,14.157459,14.154505,14.148074,14.140769,14.13128,14.125041,14.117263,14.11203,14.108165,14.10797,14.109805,14.112909,14.11614,14.118319,14.121849,14.123954,14.12374,14.120713,14.116107,14.111252,14.108599,14.106575,14.105274,14.103165,14.101145,14.097787,14.095436,14.089489,14.083737,14.072564,14.062322,14.042013,14.023303,14.004065,13.992512,13.995556,13.975087,13.954781,13.737443,13.301859,12.604269
12.609546,14.117668,14.210322,14.251618,14.257221,14.263392,14.255942,14.2421875,14.227136,14.217551,14.215027,14.208126,14.201663,14.195542,14.1912155,14.188778,14.186059,14.182893,14.176527,14.169662,14.1606,14.154441,14.146768,14.141635,14.137833,14.137627,14.139321,14.142232,14.145232,14.147222,14.150432,14.152184,14.151485,14.14794,14.142773,14.137398,14.1343355,14.132011,14.130521,14.128426,14.126598,14.123528,14.121523,14.114797,14.107535,14.095224,14.084847,14.066034,14.048971,14.025928,14.009064,14.0120535,13.994368,13.97013,13.757925,13.339601,12.682432
12.692892,14.147711,14.237108,14.278078,14.285622,14.285892,14.269049,14.255232,14.247668,14.241828,14.23973,14.233797,14.227567,14.221264,14.21645,14.213737,14.210926,14.207794,14.201789,14.195413,14.186986,14.181255,14.173935,14.168908,14.164982,14.164493,14.165654,14.168067,14.170499,14.172117,14.174874,14.176314,14.17532,14.17155,14.166088,14.160457,14.157199,14.154832,14.15339,14.151638,14.150246,14.147936,14.146912,14.138712,14.128154,14.115207,14.106999,14.089808,14.073031,14.047423,14.027333,14.030236,14.014318,13.987193,13.779431,13.374632,12.749851
12.8394375,14.204096,14.286402,14.322661,14.3287945,14.3227215,14.299265,14.285791,14.284228,14.280714,14.27802,14.271774,14.265497,14.260557,14.2573395,14.255355,14.252502,14.248978,14.242016,14.234755,14.22509,14.21836,14.210323,14.205245,14.201702,14.2018175,14.203783,14.206773,14.209852,14.211797,14.214773,14.216071,14.2146,14.210163,14.204142,14.198024,14.194437,14.191676,14.189814,14.187651,14.186405,14.182711,14.179473,14.16774,14.154213,14.141501,14.136561,14.124593,14.112028,14.087393,14.065452,14.068101,14.052817,14.021653,13.820921,13.439774,12.855077
12.962239,14.252768,14.329298,14.3595295,14.361056,14.352002,14.329295,14.316731,14.316058,14.311723,14.307274,14.299107,14.292379,14.289996,14.290187,14.289851,14.287103,14.2829075,14.273892,14.264509,14.2519245,14.242933,14.233227,14.227931,14.225258,14.226827,14.230936,14.235608,14.240607,14.243637,14.24763,14.249117,14.247214,14.241921,14.235321,14.228716,14.2248335,14.221474,14.2188425,14.215534,14.213951,14.206987,14.198844,14.183212,14.169087,14.157402,14.154773,14.149597,14.144025,14.123016,14.100459,14.102718,14.086867,14.052252,13.856833,13.496084,12.938473
13.183822,14.338085,14.410031,14.434207,14.4283285,14.411806,14.386497,14.37155,14.370548,14.364953,14.359566,14.350558,14.344128,14.343847,14.346438,14.347172,14.344215,14.339218,14.3284445,14.317461,14.302732,14.292094,14.28116,14.275704,14.273502,14.275905,14.2812195,14.286816,14.292786,14.296261,14.300518,14.3017435,14.299126,14.292838,14.285348,14.277898,14.273381,14.2692,14.265739,14.261432,14.259681,14.25002,14.237638,14.218947,14.204777,14.19401,14.19296,14.192353,14.191836,14.1769705,14.158045,14.160055,14.142526,14.104584,13.920685,13.597361,13.079978
13.372349,14.409499,14.480973,14.502813,14.491183,14.466744,14.436412,14.417004,14.41487,14.408373,14.403393,14.395209,14.389693,14.389688,14.392074,14.392593,14.389225,14.383742,14.372607,14.3616,14.34694,14.336364,14.325473,14.320043,14.317606,14.319662,14.324411,14.329527,14.334827,14.337754,14.341258,14.341846,14.338587,14.331716,14.323497,14.315284,14.310111,14.305341,14.301484,14.29697,14.295381,14.285359,14.27211,14.253092,14.239374,14.228881,14.227815,14.226704,14.226081,14.216211,14.203154,14.205321,14.186095,14.146923,13.974127,13.6837435,13.196522
13.652185,14.509336,14.578375,14.597571,14.580106,14.547136,14.511386,14.487612,14.485081,14.479806,14.477378,14.470817,14.46601,14.466743,14.469272,14.469374,14.465537,14.460181,14.449129,14.437935,14.422986,14.412236,14.401025,14.395332,14.392331,14.393862,14.39788,14.402474,14.407158,14.409734,14.412947,14.413475,14.410211,14.403404,14.39521,14.386999,14.3818655,14.376989,14.372927,14.367997,14.366068,14.355319,14.341303,14.321715,14.308021,14.296789,14.29472,14.292245,14.291129,14.285124,14.276754,14.277656,14.256058,14.214961,14.055707,13.802739,13.357459
13.86178,14.580278,14.646352,14.664241,14.644377,14.607293,14.568846,14.543217,14.541118,14.538339,14.539087,14.53424,14.529775,14.5311985,14.533928,14.53358,14.529471,14.524757,14.51424,14.502911,14.48763,14.476681,14.465054,14.458982,14.455385,14.456457,14.459893,14.464132,14.468479,14.471014,14.474498,14.475565,14.472951,14.4668455,14.459381,14.451891,14.447428,14.443008,14.43912,14.433922,14.431425,14.420194,14.406179,14.386301,14.372235,14.359654,14.356061,14.351805,14.349744,14.3442955,14.33702,14.335917,14.312498,14.270044,14.119092,13.88619,13.470318
14.128885,14.674232,14.733185,14.748531,14.72786,14.688955,14.649756,14.622789,14.620102,14.618366,14.621619,14.621119,14.620321,14.622897,14.624937,14.624008,14.619525,14.615223,14.605225,14.594043,14.578761,14.5677395,14.555835,14.5494585,14.545399,14.546129,14.548908,14.552548,14.555899,14.557776,14.561466,14.563512,14.562189,14.557222,14.550253,14.54307,14.539065,14.535531,14.5328245,14.528539,14.526029,14.5149975,14.50154,14.481664,14.467107,14.452626,14.44683,14.43947,14.4354105,14.431119,14.425969,14.420689,14.392908,14.349239,14.209058,13.994036,13.619586
14.310963,14.742629,14.793608,14.806643,14.7878895,14.750808,14.713112,14.686883,14.684043,14.682211,14.686171,14.690095,14.693889,14.6974945,14.698526,14.6972475,14.692542,14.688335,14.678617,14.667706,14.652597,14.641557,14.629475,14.622883,14.618552,14.619118,14.621421,14.624555,14.627038,14.628353,14.6324,14.635541,14.635616,14.631739,14.624997,14.617786,14.613982,14.611344,14.610042,14.607256,14.605303,14.595358,14.583191,14.563871,14.548845,14.532807,14.525216,14.514947,14.508724,14.50486,14.501102,14.491944,14.460209,14.416159,14.283303,14.07514,13.730983
14.509026,14.825737,14.864881,14.874378,14.859799,14.824947,14.787464,14.764577,14.765843,14.766041,14.770367,14.778138,14.785735,14.790347,14.790759,14.789451,14.784825,14.78095,14.771422,14.76047,14.744826,14.733113,14.719905,14.712413,14.706921,14.706758,14.707912,14.710253,14.712654,14.714756,14.720296,14.725125,14.726973,14.724318,14.718163,14.711295,14.70806,14.70636,14.705885,14.704626,14.703965,14.696879,14.687968,14.669933,14.653414,14.635283,14.626035,14.6127205,14.604083,14.600015,14.597405,14.585934,14.552314,14.507954,14.383574,14.190846,13.8766
14.635895,14.891641,14.92241,14.929976,14.919595,14.887415,14.850429,14.832585,14.839767,14.842507,14.846195,14.855694,14.865254,14.871028,14.871889,14.8709345,14.866326,14.86235,14.8524885,14.841247,14.825003,14.812727,14.798655,14.790506,14.784181,14.783505,14.784186,14.786467,14.789718,14.793184,14.800453,14.806714,14.809896,14.808037,14.802417,14.795856,14.793,14.791634,14.791114,14.790541,14.790859,14.786454,14.780654,14.764749,14.748086,14.729385,14.719319,14.70395,14.693264,14.687796,14.684944,14.672757,14.6395445,14.595168,14.477374,14.300711,14.0064945
14.748824,14.959313,14.987931,14.996423,14.988059,14.958251,14.923068,14.910644,14.923208,14.927884,14.930321,14.9404,14.951421,14.959717,14.962681,14.96232,14.957024,14.951906,14.940789,14.928973,14.912595,14.900595,14.887026,14.879259,14.873449,14.873096,14.875133,14.878937,14.883416,14.887411,14.895872,14.903237,14.907452,14.906228,14.901113,14.894684,14.891764,14.890032,14.889069,14.888009,14.887826,14.883955,14.8791895,14.866928,14.854537,14.838303,14.827525,14.809947,14.796493,14.788436,14.784174,14.770092,14.73668,14.69187,14.5813675,14.422363,14.15091
14.834539,15.023254,15.055842,15.067873,15.059304,15.032278,15.00116,14.994004,15.009996,15.015681,15.0167055,15.02642,15.038072,15.0487175,15.053913,15.054017,15.047762,15.041074,15.028655,15.016687,15.001001,14.989934,14.977852,14.971192,14.96686,14.967459,14.97179,14.977797,14.98416,14.988827,14.9979725,15.005505,15.009858,15.0085125,15.003232,14.996298,14.992682,14.989905,14.988025,14.985817,14.984609,14.980319,14.975597,14.966564,14.958848,14.945916,14.935273,14.917081,14.902076,14.890752,14.88358,14.868174,14.8360615,14.791578,14.688813,14.547316,14.300059
14.916894,15.080878,15.118485,15.134274,15.124589,15.100738,15.074989,15.072091,15.089246,15.09504,15.095021,15.104807,15.117143,15.12875,15.134625,15.134782,15.127809,15.119784,15.106706,15.095377,15.081023,15.070986,15.060352,15.054696,15.051731,15.053223,15.059368,15.067019,15.075641,15.081747,15.091278,15.098063,15.101907,15.099776,15.093268,15.084874,15.080051,15.076109,15.073348,15.070558,15.069147,15.065408,15.061636,15.053846,15.04689,15.035144,15.025385,15.008572,14.994203,14.979789,14.968793,14.953552,14.924854,14.881654,14.78667,14.660571,14.440103
15.007544,15.152997,15.1970825,15.217239,15.205873,15.186091,15.16735,15.16812,15.184479,15.1902895,15.190263,15.200357,15.213012,15.224778,15.230519,15.23026,15.222836,15.214387,15.2017565,15.191632,15.178958,15.169932,15.160796,15.15627,15.154861,15.157404,15.164813,15.173255,15.1838255,15.191598,15.201542,15.20744,15.210211,15.206895,15.199516,15.1902685,15.184526,15.179494,15.175754,15.172204,15.1705885,15.166923,15.163421,15.155643,15.148358,15.137189,15.12854,15.113519,15.100331,15.084053,15.070286,15.055115,15.029511,14.988898,14.9033575,14.793073,14.60037
15.076194,15.213304,15.262818,15.28674,15.274383,15.257673,15.243905,15.246892,15.262234,15.268589,15.269451,15.279933,15.292453,15.303966,15.30923,15.308225,15.300605,15.292809,15.2814,15.272256,15.260579,15.251956,15.243632,15.239897,15.239617,15.242965,15.250585,15.258625,15.2700205,15.279046,15.289714,15.295489,15.297233,15.292972,15.286117,15.277716,15.272144,15.266659,15.262131,15.257644,15.255615,15.251144,15.246717,15.238573,15.2317,15.221234,15.213204,15.198599,15.185426,15.169156,15.155332,15.139397,15.114332,15.076094,14.99822,14.899649,14.724738
15.1728525,15.304066,15.354452,15.379023,15.366036,15.35389,15.3469305,15.351863,15.364456,15.371289,15.373996,15.385241,15.397726,15.409165,15.414246,15.41291,15.4057455,15.399359,15.389805,15.381795,15.371251,15.363192,15.355783,15.352826,15.353565,15.357577,15.365237,15.372715,15.383944,15.39311,15.403824,15.409509,15.410724,15.406125,15.399823,15.392093,15.386596,15.380827,15.375989,15.370957,15.368526,15.363217,15.357948,15.348911,15.341617,15.330857,15.322867,15.308585,15.295957,15.281147,15.268543,15.251196,15.225599,15.19095,15.122327,15.035696,14.877795
15.248931,15.377842,15.423826,15.445426,15.432476,15.424001,15.42217,15.428058,15.437937,15.444894,15.449166,15.461091,15.473736,15.485446,15.49085,15.489847,15.483487,15.478301,15.470061,15.462702,15.452902,15.445407,15.4386635,15.436111,15.437292,15.441518,15.449335,15.456738,15.467067,15.475095,15.48501,15.490574,15.492187,15.488152,15.481869,15.473902,15.468134,15.462371,15.458009,15.453322,15.450782,15.445281,15.440018,15.430136,15.421616,15.409637,15.401147,15.387188,15.375603,15.362577,15.351222,15.33232,15.30551,15.27384,15.211634,15.131757,14.982341
15.361039,15.483665,15.524007,15.541659,15.5283785,15.525646,15.532158,15.539511,15.544849,15.551593,15.55805,15.571123,15.584373,15.5968485,15.603044,15.602841,15.597603,15.593628,15.586807,15.5804,15.57169,15.564918,15.55905,15.557057,15.558761,15.563162,15.570921,15.578002,15.587413,15.594453,15.603561,15.6088505,15.610584,15.60675,15.600161,15.591562,15.585149,15.578755,15.574082,15.56904,15.566171,15.560376,15.555099,15.544627,15.5352745,15.522108,15.512791,15.4989,15.488316,15.477244,15.467742,15.449146,15.4229765,15.394458,15.339079,15.266931,15.13155
15.443128,15.558936,15.596142,15.611329,15.597262,15.599053,15.612578,15.621209,15.622788,15.629127,15.63714,15.651185,15.665143,15.678449,15.685411,15.6859255,15.681371,15.677866,15.671722,15.666024,15.658129,15.651814,15.646554,15.64501,15.647101,15.651592,15.659158,15.665855,15.67498,15.681893,15.690744,15.695764,15.697185,15.692962,15.685868,15.676575,15.669486,15.662113,15.656415,15.650423,15.647169,15.641119,15.635785,15.625344,15.616118,15.602558,15.592594,15.57846,15.568203,15.558055,15.549901,15.5333605,15.509406,15.482351,15.430303,15.362583,15.2391205
15.562533,15.667859,15.700425,15.714372,15.702891,15.709903,15.728331,15.737174,15.735041,15.74065,15.749928,15.764776,15.779397,15.79325,15.801105,15.80326,15.800538,15.798077,15.793078,15.788424,15.781603,15.775906,15.7710085,15.769421,15.771154,15.77519,15.781879,15.787771,15.79596,15.802283,15.81046,15.815145,15.816394,15.812384,15.805882,15.797028,15.789797,15.781867,15.775612,15.768988,15.765378,15.758927,15.753317,15.742781,15.733722,15.719865,15.709358,15.695186,15.68543,15.676265,15.669512,15.655489,15.634419,15.609252,15.561563,15.499965,15.3916025
15.650435,15.74756,15.77673,15.791425,15.784414,15.794223,15.8124695,15.82034,15.816817,15.821855,15.831376,15.846385,15.861239,15.875053,15.883434,15.887215,15.886401,15.884929,15.880848,15.876952,15.870837,15.865564,15.860586,15.858494,15.85934,15.862638,15.86827,15.873391,15.880563,15.886212,15.893717,15.898192,15.899478,15.896095,15.8908615,15.883258,15.876497,15.868736,15.86265,15.856017,15.852272,15.84554,15.839644,15.829017,15.820125,15.806277,15.795649,15.781634,15.772222,15.763484,15.757369,15.744985,15.725923,15.701924,15.656958,15.599451,15.500639
15.775963,15.862218,15.887037,15.903217,15.902803,15.914674,15.92983,15.936463,15.933431,15.939035,15.949103,15.964225,15.978989,15.992715,16.00189,16.007854,16.009619,16.00957,16.006678,16.003517,15.998248,15.993725,15.989,15.986551,15.986508,15.988897,15.993218,15.997346,16.00315,16.00786,16.014528,16.01876,16.01999,16.01705,16.012604,16.006006,16.00013,15.992926,15.986844,15.9800205,15.976071,15.969467,15.964012,15.953834,15.945133,15.931333,15.92058,15.906699,15.897611,15.889343,15.883992,15.873421,15.856768,15.834692,15.793738,15.741382,15.654897
15.877311,15.955566,15.977261,15.995174,16.000572,16.012682,16.022951,16.028513,16.02766,16.034496,16.044893,16.059856,16.074194,16.087778,16.09759,16.105122,16.108828,16.11001,16.108137,16.105467,16.100824,16.096954,16.092422,16.089602,16.088818,16.090527,16.093866,16.097254,16.102001,16.10596,16.112026,16.116108,16.117258,16.114471,16.110165,16.104034,16.09904,16.09255,16.086477,16.079533,16.075483,16.069277,16.064568,16.055082,16.046598,16.032965,16.022213,16.00843,15.999486,15.991448,15.986529,15.976995,15.961944,15.941623,15.903885,15.854968,15.776925
16.009222,16.077793,16.094688,16.11421,16.127,16.140558,16.146177,16.150654,16.15164,16.159298,16.169708,16.184261,16.19817,16.211914,16.222618,16.2314,16.236961,16.23992,16.239952,16.238539,16.23494,16.231686,16.226418,16.221891,16.219528,16.22071,16.22298,16.225452,16.228977,16.232107,16.237467,16.241358,16.242458,16.239967,16.23608,16.230597,16.226332,16.220482,16.21465,16.207844,16.203836,16.197794,16.193256,16.184315,16.176441,16.16319,16.152393,16.138765,16.130066,16.122385,16.118046,16.109783,16.096756,16.078934,16.045444,16.000551,15.932936
16.126736,16.188362,16.202477,16.22342,16.241177,16.255442,16.257576,16.261168,16.263449,16.271555,16.28176,16.295586,16.308804,16.322533,16.333858,16.343288,16.350157,16.354702,16.356684,16.3567,16.354277,16.351597,16.345541,16.339298,16.335222,16.33571,16.337002,16.338846,16.341465,16.343971,16.348783,16.352512,16.35357,16.351316,16.347784,16.342773,16.338907,16.333477,16.327969,16.321453,16.317604,16.3116,16.306892,16.298319,16.291166,16.278435,16.267687,16.254318,16.2459,16.23858,16.234724,16.227373,16.215988,16.200783,16.17124,16.129549,16.06963
16.252363,16.308163,16.323147,16.346676,16.367176,16.380093,16.377844,16.37973,16.383144,16.391844,16.402113,16.414782,16.426569,16.439556,16.45124,16.461794,16.47058,16.476738,16.480694,16.482256,16.481472,16.4799,16.47417,16.467398,16.46153,16.459991,16.459862,16.461548,16.463366,16.465128,16.469336,16.472878,16.473862,16.471811,16.4686,16.464056,16.460651,16.455658,16.450392,16.444096,16.440372,16.434523,16.429873,16.421814,16.415356,16.403269,16.392769,16.379894,16.371916,16.365131,16.361845,16.355406,16.345745,16.33365,16.308592,16.270678,16.217937
16.381725,16.433552,16.451538,16.476736,16.496273,16.507223,16.503128,16.504435,16.508654,16.51788,16.528154,16.539608,16.549784,16.561567,16.573086,16.584505,16.59485,16.60208,16.607393,16.61009,16.610695,16.610157,16.605206,16.598656,16.59159,16.588133,16.586382,16.587532,16.588547,16.589825,16.593515,16.596819,16.597656,16.595688,16.592634,16.588375,16.585245,16.580538,16.575438,16.56932,16.565714,16.560076,16.55557,16.54799,16.54206,16.530577,16.520424,16.508118,16.500605,16.494352,16.491602,16.485935,16.477968,16.469486,16.449173,16.415077,16.36758
16.50452,16.55328,16.573725,16.598661,16.614887,16.624908,16.622572,16.625275,16.630093,16.63969,16.64969,16.660257,16.66928,16.679922,16.69095,16.702765,16.713968,16.721678,16.727585,16.730782,16.732033,16.732014,16.727453,16.720995,16.713573,16.709541,16.706142,16.705608,16.705784,16.70727,16.710695,16.713713,16.714361,16.712353,16.709307,16.705137,16.702103,16.697521,16.69251,16.686518,16.683004,16.677542,16.673183,16.665943,16.66035,16.649292,16.639397,16.62751,16.620342,16.614494,16.612177,16.60703,16.600601,16.59607,16.5806,16.549889,16.506153
16.652636,16.69749,16.718433,16.741644,16.754473,16.764702,16.765852,16.77112,16.7767,16.786823,16.796547,16.806559,16.814749,16.824379,16.834698,16.846432,16.857838,16.865572,16.871563,16.87486,16.87634,16.87655,16.872286,16.866035,16.858725,16.85466,16.85004,16.847866,16.846693,16.847649,16.850435,16.85315,16.853539,16.85146,16.848368,16.844234,16.84124,16.836765,16.831873,16.82606,16.822676,16.81746,16.81334,16.806389,16.800957,16.790195,16.780554,16.769047,16.762182,16.756615,16.754705,16.750587,16.746176,16.745209,16.734179,16.70748,16.667894
16.772802,16.813583,16.832375,16.8536,16.865622,16.876692,16.879871,16.88693,16.893274,16.903963,16.913626,16.923487,16.931307,16.940464,16.950315,16.961706,16.972872,16.98046,16.986385,16.98967,16.991213,16.991497,16.987404,16.98133,16.974155,16.970104,16.965292,16.962748,16.960058,16.959362,16.961245,16.96395,16.964266,16.962276,16.959232,16.955185,16.952265,16.947935,16.943197,16.937593,16.93435,16.929388,16.925522,16.918774,16.913359,16.902752,16.893295,16.882034,16.875359,16.869852,16.868204,16.86554,16.863117,16.863726,16.854845,16.831415,16.795763
16.928375,16.9638,16.97977,16.999563,17.012249,17.025505,17.03121,17.040665,17.048067,17.059582,17.069275,17.079218,17.086866,17.095694,17.10508,17.116026,17.12681,17.134193,17.139965,17.143122,17.144592,17.144875,17.14092,17.135061,17.128002,17.123896,17.118862,17.115957,17.111828,17.10949,17.110006,17.112051,17.111702,17.10945,17.106323,17.102407,17.099592,17.095459,17.09091,17.085545,17.082441,17.077732,17.074106,17.067509,17.062046,17.051535,17.042242,17.031221,17.02475,17.019402,17.018114,17.016903,17.016455,17.018583,17.012257,16.99321,16.96286
