4.5290046,4.548503,4.568797,4.6187387,4.6626396,4.7859163,4.9011292,5.1997695,5.520875,5.897609,6.1039143,6.3415146,6.462855,6.6008267,6.6685076,6.760412,6.821879,6.8943133,6.9476166,7.002876,7.0473995,7.0855584,7.123679,7.156756,7.199666,7.2358155,7.282931,7.3158846,7.36227,7.396243,7.435404,7.456294,7.4803963,7.491746,7.4974895,7.492903,7.4938912,7.4822383,7.45088,7.3644314,7.2696385,6.988925,6.579628,5.917713,5.2165065,4.6669984,4.5891814,4.579431,4.5782747,4.578225,4.576956,4.5774183,4.579699,4.5829277,4.5857525,4.5895696,4.5925555,4.5954947,4.5977874,4.601116,4.6041975,4.6065874,4.6082544,4.6090164,4.6099186,4.6109047,4.6126223,4.6141543,4.6161804,4.6174493,4.6195374,4.621173,4.624047,4.626471,4.6292005,4.631054,4.633857,4.636765,4.641139,4.645654,4.6499076,4.6538014
4.5347166,4.5576863,4.5771327,4.643786,4.6918583,4.9258146,5.218211,5.726867,6.163251,6.6466894,6.89095,7.1470942,7.2526245,7.366902,7.408105,7.4530253,7.4689636,7.4917827,7.5100584,7.5372496,7.563472,7.5826564,7.601966,7.619988,7.643455,7.662976,7.687718,7.7050676,7.726631,7.741219,7.7500105,7.747745,7.7415543,7.7336526,7.721159,7.7105045,7.7006264,7.695368,7.6974335,7.6874948,7.7070518,7.5734987,7.3746324,6.7133975,5.710807,4.831314,4.6477437,4.5832486,4.5889163,4.59375,4.5897026,4.5879455,4.589913,4.5928974,4.5959215,4.5998874,4.6030517,4.6062994,4.6089025,4.612517,4.615777,4.618211,4.619948,4.620898,4.622047,4.6232133,4.625052,4.6265755,4.6286316,4.629972,4.632118,4.633771,4.6364374,4.638547,4.6408324,4.6423616,4.6450105,4.647977,4.652403,4.656979,4.66127,4.665114
4.539316,4.5646615,4.584093,4.6588492,4.6882524,5.0287514,5.5492682,6.199547,6.5850315,6.9868236,7.172302,7.365208,7.439742,7.5155396,7.535965,7.5598364,7.5685177,7.590656,7.6121078,7.6320424,7.647346,7.65908,7.670803,7.6819406,7.6975336,7.7115345,7.728621,7.739509,7.754362,7.7654366,7.774472,7.776103,7.7747617,7.770372,7.763871,7.756502,7.7392316,7.72416,7.7270555,7.7253537,7.7270837,7.637591,7.6096067,7.0642524,6.0109863,5.0078874,4.719305,4.5827103,4.596154,4.6067,4.6002936,4.5966806,4.5983706,4.601079,4.6041784,4.608202,4.6114926,4.6149883,4.617835,4.621596,4.624909,4.627347,4.629137,4.6302333,4.6315813,4.632889,4.6348553,4.636421,4.6385584,4.6399693,4.6423182,4.6441913,4.646732,4.648465,4.6503434,4.6516366,4.6542425,4.6573544,4.661891,4.6665416,4.6708684,4.6746497
4.543327,4.5703173,4.5899444,4.679095,4.707684,5.149367,5.8608847,6.6297865,6.97537,7.3045363,7.4317102,7.563799,7.6100936,7.6555786,7.664347,7.680399,7.690614,7.7115865,7.730509,7.7439475,7.751044,7.756181,7.761109,7.7664356,7.775557,7.7849855,7.7961044,7.802275,7.8120565,7.820377,7.8283715,7.8313184,7.8318686,7.829201,7.826073,7.8212423,7.803936,7.78576,7.7800183,7.7750387,7.7720222,7.7227707,7.8018894,7.3502684,6.3262367,5.2541714,4.8255024,4.5847282,4.607533,4.6250362,4.6156745,4.6097217,4.611078,4.6136003,4.6170125,4.621349,4.6249504,4.6288643,4.6320453,4.6360497,4.6394615,4.641905,4.643729,4.6449795,4.646531,4.6479654,4.650075,4.651734,4.654055,4.6557355,4.657466,4.658203,4.6593695,4.6602325,4.6613765,4.6624866,4.66492,4.6680546,4.6726246,4.677345,4.6817293,4.6855226
4.5446954,4.5715637,4.5910397,4.691455,4.7351456,5.2157555,5.9785767,6.7738976,7.1032615,7.3988485,7.4957037,7.5991726,7.6351047,7.6744294,7.687033,7.7130275,7.733571,7.755752,7.7700634,7.782282,7.7886996,7.7925076,7.7960024,7.8003263,7.808547,7.81739,7.828109,7.834212,7.844012,7.8524456,7.8600554,7.8623466,7.862416,7.859721,7.8566303,7.85264,7.842338,7.828365,7.8087335,7.788497,7.7889605,7.74863,7.813478,7.388591,6.4647703,5.4250784,4.9043303,4.588496,4.6167336,4.6382957,4.6270742,4.6196375,4.6207924,4.6233172,4.6270905,4.631807,4.635727,4.6399937,4.643414,4.6476173,4.651113,4.6535635,4.6553926,4.656722,4.6583667,4.65984,4.6620116,4.663738,4.6661954,4.668139,4.668824,4.667826,4.6672525,4.6672883,4.6678195,4.668908,4.671162,4.674202,4.6787214,4.6834674,4.6878967,4.6917596
4.5500565,4.5759873,4.587826,4.6926255,4.7475624,5.2774606,6.1142845,6.9520407,7.2625003,7.521238,7.5861707,7.6631145,7.693091,7.7303743,7.7477536,7.776233,7.7969985,7.8169127,7.827477,7.8358717,7.840281,7.8450165,7.850534,7.855778,7.8639855,7.872124,7.8811793,7.885846,7.8930783,7.8993325,7.904074,7.9045377,7.901077,7.895516,7.891471,7.8892255,7.8842463,7.874385,7.8503156,7.823523,7.821552,7.78676,7.859572,7.459435,6.582826,5.547601,4.96805,4.6047564,4.6353517,4.657484,4.643287,4.6335893,4.634535,4.637031,4.6412334,4.64645,4.650837,4.655658,4.659496,4.6640434,4.6677322,4.670286,4.6722465,4.673827,4.6757016,4.677327,4.679305,4.6806374,4.6823306,4.683644,4.683149,4.6811213,4.679516,4.679117,4.679338,4.680461,4.6827073,4.685785,4.6903477,4.6951313,4.699575,4.7034354
4.556421,4.5805917,4.5820355,4.6815867,4.737778,5.2936053,6.1746054,7.038136,7.33693,7.576296,7.6261387,7.694852,7.728034,7.770089,7.7916946,7.8174725,7.831727,7.8481584,7.857569,7.863605,7.867743,7.875451,7.885098,7.892738,7.9022064,7.910403,7.91839,7.9218817,7.926603,7.930519,7.932309,7.9309845,7.923636,7.914638,7.908634,7.907035,7.9039316,7.8969793,7.877703,7.852915,7.8448696,7.8052855,7.884591,7.488178,6.6041617,5.563044,4.9858375,4.6235695,4.6521764,4.6716647,4.6557727,4.6447206,4.645474,4.6479435,4.652454,4.65808,4.6628804,4.668211,4.672454,4.677329,4.681227,4.683959,4.6860967,4.6878986,4.689905,4.6915803,4.6932206,4.69405,4.6948137,4.695286,4.6941786,4.6921325,4.6905537,4.69027,4.690618,4.6918473,4.69425,4.697449,4.7021,4.7068973,4.711313,4.715112
4.5660295,4.5870295,4.577594,4.6680837,4.714724,5.299311,6.2459307,7.149399,7.431625,7.646622,7.679747,7.7398424,7.7772036,7.8193045,7.83865,7.8607,7.87135,7.8834267,7.891014,7.8995876,7.907844,7.917018,7.926855,7.9343777,7.943155,7.9507475,7.957564,7.959987,7.963174,7.9659815,7.9664984,7.9645076,7.956405,7.9468307,7.9368935,7.931238,7.928143,7.9244905,7.909498,7.8871264,7.87483,7.8336964,7.923063,7.5337896,6.6461477,5.595188,5.008513,4.638065,4.6646605,4.683732,4.669189,4.6585073,4.6586304,4.6610274,4.665931,4.6721253,4.67751,4.6835947,4.688441,4.693752,4.6979384,4.701084,4.70346,4.705277,4.70695,4.7080755,4.709326,4.710168,4.7112894,4.712275,4.7113442,4.7090335,4.7073517,4.707138,4.7076283,4.7090216,4.7116246,4.714961,4.7196913,4.7244763,4.728844,4.732566
4.572552,4.59049,4.575866,4.6549873,4.677291,5.275636,6.283354,7.226113,7.4936724,7.692113,7.7178855,7.775267,7.8160305,7.855625,7.8694897,7.887564,7.896772,7.906693,7.9143715,7.9274035,7.940219,7.949423,7.95722,7.9632893,7.9706163,7.9775486,7.983698,7.9855933,7.98849,7.9913883,7.9921904,7.9905066,7.9838033,7.975546,7.962479,7.951946,7.9465504,7.943913,7.9327664,7.913935,7.8994465,7.857347,7.9532247,7.5691466,6.6812444,5.623116,5.025815,4.646383,4.6713357,4.6915774,4.6803017,4.671227,4.6706114,4.672921,4.6781316,4.6848197,4.690731,4.697506,4.70291,4.7086253,4.7130566,4.716552,4.7190375,4.720689,4.7218747,4.7223563,4.7233844,4.724555,4.726631,4.7286468,4.728559,4.726405,4.724947,4.7248397,4.7255435,4.7271147,4.729911,4.7333426,4.7380977,4.7428174,4.7471023,4.750733
4.5756035,4.591386,4.5792437,4.6451564,4.6227727,5.2252216,6.3082485,7.302775,7.5553665,7.7394567,7.761958,7.8155165,7.85438,7.8906946,7.9019694,7.9161944,7.9233794,7.935578,7.9472327,7.9612646,7.973374,7.981967,7.9887733,7.9939947,8.000454,8.006901,8.012454,8.013863,8.016281,8.018971,8.019649,8.018,8.011564,8.003621,7.9906497,7.9796495,7.9714165,7.9664226,7.957738,7.942201,7.9255347,7.882397,7.9814267,7.6063566,6.7343583,5.6756606,5.0550904,4.6564183,4.680887,4.7028513,4.6941338,4.68626,4.6850076,4.687263,4.692795,4.6999946,4.7064385,4.713883,4.7198195,4.7260137,4.7306337,4.734068,4.7363124,4.737764,4.738785,4.739188,4.740307,4.741659,4.744057,4.7462873,4.7469893,4.745735,4.7448835,4.7447953,4.7457,4.7474365,4.7503853,4.75386,4.758574,4.763185,4.7673054,4.7709603
4.567764,4.5824876,4.576861,4.6349998,4.5727654,5.178843,6.330577,7.3703594,7.6058664,7.7770233,7.8005557,7.851333,7.8858356,7.9182925,7.928107,7.9406905,7.947936,7.9635234,7.978658,7.991794,8.00122,8.008871,8.015119,8.019779,8.025743,8.031921,8.037158,8.038304,8.040474,8.04307,8.043669,8.0420065,8.035526,8.027631,8.016361,8.006979,7.99611,7.9876184,7.9805155,7.967928,7.950015,7.906263,8.003303,7.641879,6.80788,5.7583456,5.09829,4.6673746,4.6932425,4.7179894,4.7110157,4.7038918,4.702117,4.704241,4.7099466,4.7174892,4.7243366,4.732288,4.738633,4.7451844,4.7499466,4.753351,4.755442,4.7567434,4.7577286,4.758263,4.7595553,4.760998,4.763405,4.7654643,4.766913,4.7668843,4.7668843,4.7668843,4.7680645,4.7699795,4.7730584,4.7765145,4.78113,4.7855544,4.7895436,4.79289
4.552846,4.5667415,4.5649385,4.6236186,4.5464315,5.1668653,6.370281,7.4379754,7.652663,7.807557,7.830786,7.8791037,7.91114,7.9404655,7.9486375,7.962322,7.972099,7.9877424,8.001554,8.013835,8.022628,8.029922,8.0359,8.040235,8.045893,8.051935,8.056975,8.057922,8.059899,8.062428,8.062878,8.06107,8.054494,8.046637,8.035997,8.027215,8.01519,8.005478,8.000179,7.9898663,7.9710045,7.9268527,8.019637,7.6746836,6.8901544,5.8549957,5.147431,4.6778684,4.7062087,4.7341495,4.728202,4.7213554,4.7190623,4.7208905,4.726591,4.73427,4.7413855,4.749696,4.75636,4.763095,4.7680564,4.771936,4.7743573,4.775557,4.7763534,4.776846,4.77814,4.7796135,4.782036,4.7840085,4.78611,4.787089,4.7878876,4.78812,4.7900357,4.7926435,4.796286,4.799887,4.8044467,4.8084955,4.812439,4.8145895
4.5257926,4.540097,4.539154,4.6050487,4.534915,5.180137,6.42117,7.5046334,7.6989727,7.8384123,7.8617167,7.9078364,7.9374433,7.963739,7.970475,7.9866242,8.00021,8.01523,8.026281,8.037568,8.046153,8.053272,8.059155,8.063273,8.068727,8.074698,8.079631,8.080457,8.082318,8.084817,8.085113,8.083119,8.076346,8.06842,8.058192,8.049912,8.037286,8.02704,8.023432,8.015288,7.9964924,7.952937,8.039715,7.714117,6.9902544,5.9738665,5.2097974,4.6945186,4.7265525,4.7578616,4.751682,4.744474,4.7419424,4.7435403,4.7491746,4.756896,4.764169,4.7727065,4.779557,4.786279,4.791298,4.7955794,4.7984543,4.799903,4.8007293,4.801045,4.8021297,4.803534,4.805847,4.8076878,4.810039,4.811503,4.812864,4.8133883,4.814971,4.816838,4.819796,4.822995,4.8273616,4.831417,4.835463,4.837244
4.500894,4.516466,4.5129247,4.5860257,4.533006,5.2015743,6.460822,7.5497007,7.73225,7.862832,7.8862667,7.9309306,7.958796,7.982729,7.98814,8.005651,8.021796,8.036836,8.046659,8.057771,8.066462,8.073488,8.079181,8.083075,8.088301,8.094177,8.098996,8.099727,8.101489,8.103946,8.104128,8.102017,8.095061,8.087012,8.076942,8.068932,8.056047,8.045675,8.043167,8.036685,8.018957,7.9769106,8.059676,7.747987,7.067893,6.0644803,5.2586446,4.709781,4.7448077,4.778358,4.771348,4.7635994,4.7611227,4.762689,4.768315,4.776062,4.7833967,4.792043,4.7989607,4.8055944,4.8105254,4.814786,4.817941,4.8200235,4.8213167,4.8215384,4.822426,4.8237505,4.8259134,4.827583,4.8301063,4.8319893,4.833706,4.8341703,4.8334146,4.8321404,4.8323174,4.8341937,4.8380003,4.84255,4.8467064,4.849752
4.467811,4.4854193,4.4787455,4.5618134,4.5342603,5.229151,6.4989114,7.5900745,7.7662997,7.8923645,7.916302,7.9594336,7.9849534,8.007698,8.013669,8.03305,8.051188,8.066553,8.075372,8.085393,8.09322,8.100187,8.106104,8.109967,8.115156,8.121032,8.125886,8.12666,8.128499,8.131026,8.131227,8.129074,8.122005,8.113849,8.103964,8.096134,8.082308,8.07105,8.0694065,8.06462,8.0476675,8.006922,8.086008,7.7879906,7.1498103,6.159868,5.315936,4.7366033,4.775005,4.810005,4.8006563,4.7916765,4.78969,4.791574,4.797393,4.8052826,4.812617,4.821177,4.8278847,4.834178,4.8387866,4.842827,4.846002,4.848494,4.849777,4.849298,4.8494434,4.8505445,4.8525686,4.8544135,4.8552155,4.854477,4.8552246,4.8566294,4.85568,4.8536663,4.8532753,4.8550406,4.8592525,4.864631,4.8692527,4.8736444
4.4438243,4.4628477,4.454919,4.5450864,4.5347643,5.245135,6.5173063,7.609622,7.78676,7.913555,7.937722,7.9797206,8.0034685,8.026762,8.034842,8.0552,8.07328,8.08906,8.097845,8.106566,8.113081,8.120049,8.126445,8.130473,8.135821,8.14179,8.146806,8.147741,8.149799,8.152481,8.152834,8.150741,8.143707,8.135539,8.125849,8.118069,8.102909,8.0902605,8.089017,8.085347,8.06827,8.02778,8.105166,7.814804,7.1988378,6.216413,5.3528934,4.7586813,4.800296,4.836173,4.824219,4.8138995,4.8124685,4.815308,4.8220873,4.830453,4.837565,4.845495,4.851417,4.8571887,4.861544,4.8654876,4.8685794,4.8710318,4.871701,4.870105,4.869269,4.8701854,4.8724008,4.8750505,4.8725204,4.866241,4.8646817,4.8679643,4.870027,4.871118,4.873586,4.87691,4.8824415,4.888373,4.8935485,4.898224
4.416826,4.438007,4.4298697,4.5277767,4.534562,5.2596784,6.5331116,7.6268187,7.8064537,7.9366403,7.963269,8.004747,8.025455,8.049413,8.060904,8.085742,8.106959,8.123444,8.130063,8.135009,8.138269,8.145045,8.152478,8.15683,8.162491,8.168631,8.173871,8.174991,8.177289,8.180135,8.180629,8.178565,8.171555,8.16338,8.153928,8.146197,8.129476,8.115025,8.113638,8.110399,8.092313,8.051208,8.127321,7.8421907,7.2394285,6.2664466,5.4009995,4.801981,4.8400474,4.871744,4.857385,4.8462324,4.845986,4.8469014,4.850534,4.8577127,4.8657956,4.8757086,4.883485,4.8894258,4.89273,4.895656,4.897526,4.899093,4.8988647,4.8967032,4.895087,4.8954372,4.8963933,4.897703,4.894435,4.88845,4.8872285,4.8909254,4.894943,4.8983984,4.9031973,4.908062,4.9152308,4.9222236,4.9282627,4.933415
4.4020114,4.4248614,4.417627,4.5195007,4.533504,5.264544,6.5380354,7.632719,7.8144174,7.9482765,7.978199,8.020026,8.038115,8.062282,8.076356,8.106755,8.132791,8.149913,8.153383,8.154212,8.154126,8.160613,8.169032,8.17367,8.179596,8.1858835,8.191271,8.192487,8.194897,8.197819,8.198348,8.1962595,8.189235,8.181056,8.171756,8.164065,8.146465,8.130862,8.128932,8.125264,8.105918,8.063744,8.139702,7.8546624,7.249349,6.2825346,5.4331164,4.8413363,4.8709598,4.895755,4.880636,4.8697505,4.870736,4.867741,4.865582,4.8704586,4.880251,4.8938484,4.905283,4.91204,4.9140286,4.9155235,4.9156537,4.91596,4.915077,4.913287,4.9116025,4.9113703,4.9102,4.908496,4.907746,4.908365,4.910213,4.9124403,4.91593,4.919334,4.9243135,4.9296827,4.9377937,4.945763,4.9524517,4.9580235
4.3884435,4.413142,4.407189,4.513198,4.5341263,5.2707996,6.54416,7.6405106,7.825477,7.964633,7.9989295,8.041924,8.057473,8.082663,8.100124,8.135842,8.165734,8.182672,8.182599,8.179501,8.176501,8.182755,8.192124,8.197072,8.203278,8.209694,8.2152,8.216498,8.218985,8.221936,8.222475,8.220373,8.213348,8.20518,8.195912,8.188148,8.170022,8.153559,8.150431,8.145403,8.124553,8.081016,8.155945,7.8702087,7.261642,6.3023586,5.4722834,4.8900986,4.910875,4.9285836,4.913,4.9013944,4.9020514,4.896377,4.8911896,4.894775,4.905433,4.9208016,4.9340706,4.9414186,4.9430027,4.94394,4.943344,4.9431596,4.942072,4.9406714,4.9384828,4.9366875,4.934737,4.9334397,4.9352036,4.938999,4.942485,4.9441257,4.9475675,4.9511337,4.9564686,4.9623666,4.971326,4.9802537,4.9878683,4.9943304
4.3849325,4.4105635,4.4055686,4.5132737,4.536287,5.274674,6.5479474,7.6457415,7.8331223,7.9759264,8.013022,8.057312,8.071973,8.098461,8.118159,8.15593,8.186534,8.202549,8.200518,8.195857,8.19199,8.198191,8.207945,8.21306,8.219399,8.225856,8.231385,8.232703,8.235179,8.238092,8.238602,8.236494,8.229484,8.221334,8.211961,8.204052,8.186079,8.169548,8.165217,8.158592,8.136728,8.092192,8.165892,7.8786993,7.266756,6.311979,5.4952946,4.9207935,4.936956,4.9511566,4.9357324,4.9228973,4.9218826,4.9161434,4.912206,4.9161577,4.9264116,4.9408264,4.9532585,4.9606833,4.962938,4.964436,4.9644504,4.9647574,4.9640136,4.962836,4.9600997,4.9568143,4.955736,4.9576006,4.960554,4.9628816,4.965901,4.968021,4.9717803,4.9755087,4.9810696,4.9871807,4.9964027,5.0057354,5.0140047,5.021291
4.3858557,4.412416,4.4081073,4.5171843,4.541292,5.2835336,6.5623384,7.664331,7.8517265,7.9944773,8.031556,8.07637,8.091811,8.121267,8.144076,8.182953,8.212353,8.226551,8.222374,8.21563,8.21058,8.216725,8.22704,8.232438,8.239025,8.245575,8.251169,8.252538,8.254989,8.257819,8.258223,8.256045,8.249035,8.240944,8.231514,8.223485,8.205684,8.188922,8.182996,8.173785,8.148888,8.101549,8.173822,7.884843,7.266699,6.319241,5.5253944,4.9649568,4.9747577,4.983863,4.9683785,4.9535937,4.95019,4.944865,4.943391,4.948145,4.9577994,4.971383,4.983093,4.9905486,4.993285,4.995118,4.9954877,4.996089,4.995543,4.9943023,4.991821,4.989098,4.988469,4.9903717,4.9933186,4.995585,4.998839,5.0013366,5.0055113,5.009544,5.015545,5.0220933,5.0319123,5.041891,5.050836,5.0588927
4.3935404,4.4203877,4.4157796,4.5253,4.55003,5.296297,6.581838,7.6869984,7.871447,8.010243,8.044735,8.089153,8.1066,8.138892,8.163732,8.20182,8.228543,8.241022,8.235909,8.22801,8.22236,8.228507,8.239189,8.244824,8.251624,8.25825,8.263894,8.265295,8.2676935,8.270417,8.270672,8.268387,8.261338,8.25329,8.243825,8.235725,8.218122,8.201181,8.193847,8.182259,8.154452,8.104359,8.175329,7.884328,7.2594957,6.3183084,5.5458984,4.999611,5.0048757,5.0101366,4.994418,4.9780097,4.972761,4.968287,4.969394,4.9749866,4.9840155,4.997109,5.0084314,5.015868,5.018824,5.0208077,5.021342,5.0220776,5.0216084,5.0201087,5.0184083,5.017649,5.0169873,5.016519,5.018271,5.0211906,5.024938,5.0276723,5.0321894,5.0364985,5.0429,5.049837,5.060195,5.0706625,5.0799685,5.0883875
4.4068522,4.4338264,4.42761,4.5388713,4.569872,5.323011,6.612208,7.71616,7.8950686,8.028391,8.060797,8.104774,8.123799,8.158115,8.184281,8.221213,8.245441,8.256775,8.251368,8.242531,8.236246,8.242424,8.253483,8.2593775,8.266381,8.273047,8.278669,8.280042,8.282303,8.284861,8.284882,8.282432,8.275249,8.267168,8.257575,8.249329,8.23188,8.214597,8.204858,8.19037,8.161378,8.109594,8.177477,7.8817215,7.247301,6.3144865,5.571196,5.0443754,5.0438485,5.0438995,5.0274286,5.0096264,5.0033255,4.999085,5.001373,5.0068793,5.015269,5.0288568,5.0410657,5.048865,5.051958,5.0541797,5.054957,5.0558987,5.055581,5.0539813,5.0528092,5.0534396,5.0519753,5.048584,5.049194,5.0534024,5.0579643,5.0608516,5.0657396,5.070386,5.077273,5.084681,5.0956683,5.106716,5.116518,5.1253753
4.4253745,4.4520326,4.442731,4.557111,4.600945,5.3625546,6.648628,7.7444134,7.915725,8.042584,8.073549,8.116938,8.136808,8.17158,8.197699,8.233386,8.256118,8.267054,8.261925,8.252769,8.246192,8.252417,8.263712,8.269828,8.277016,8.283735,8.28935,8.290699,8.292833,8.295241,8.295019,8.292379,8.284978,8.27677,8.266954,8.258517,8.241134,8.223504,8.211389,8.194533,8.165989,8.113879,8.178634,7.877445,7.2332287,6.3074694,5.590952,5.082769,5.077994,5.073909,5.0564985,5.0383034,5.032405,5.027873,5.0295367,5.034448,5.0427475,5.0573745,5.0709047,5.079113,5.082168,5.08456,5.0855317,5.086647,5.0864954,5.084954,5.0840364,5.08526,5.083048,5.0777855,5.077539,5.082399,5.087404,5.0904408,5.0956264,5.100554,5.1078486,5.115651,5.127148,5.1386523,5.1488585,5.15802
4.448314,4.474447,4.4606457,4.580522,4.6457047,5.419251,6.696026,7.7767596,7.9380326,8.057027,8.086984,8.129759,8.150152,8.184862,8.210612,8.245788,8.268019,8.278254,8.272527,8.262789,8.256009,8.262463,8.274219,8.280623,8.288072,8.294932,8.300655,8.302072,8.304157,8.306447,8.305978,8.303111,8.295424,8.287023,8.276884,8.268174,8.250805,8.232842,8.218474,8.199294,8.170684,8.118262,8.181423,7.8756475,7.2203646,6.300615,5.611149,5.1223893,5.1141257,5.106443,5.0880327,5.070312,5.0660067,5.0609317,5.0607915,5.0655813,5.0749354,5.0904207,5.104486,5.112812,5.115755,5.1182346,5.119376,5.1206565,5.1207085,5.119303,5.118584,5.119987,5.1179686,5.112869,5.112082,5.1160083,5.1207175,5.124179,5.1297417,5.134963,5.1426864,5.1508956,5.162908,5.1748753,5.185495,5.1949925
4.478945,4.5042057,4.4850583,4.611316,4.7022595,5.487478,6.7478337,7.807701,7.958907,8.0702715,8.099464,8.14138,8.161743,8.195634,8.220528,8.255332,8.27767,8.287639,8.281594,8.271672,8.26478,8.270992,8.282722,8.289416,8.297294,8.304424,8.310415,8.311996,8.31414,8.316365,8.315675,8.312558,8.304497,8.295798,8.285236,8.276214,8.258819,8.2406,8.2243185,8.203267,8.175125,8.122522,8.1835165,7.872564,7.2062206,6.2925296,5.629841,5.1611032,5.1506147,5.1405306,5.121522,5.1044645,5.101592,5.0960717,5.0943203,5.098983,5.1091733,5.1250367,5.1391735,5.147438,5.1502695,5.1527762,5.1540523,5.155476,5.1557555,5.1545696,5.153974,5.1550817,5.1542673,5.151548,5.1505704,5.1518426,5.155334,5.159355,5.165244,5.1707163,5.1788354,5.1874495,5.199977,5.2124186,5.223478,5.233332
4.51004,4.5344353,4.510859,4.64215,4.7542133,5.547494,6.7915225,7.83268,7.976636,8.082297,8.110541,8.151389,8.171496,8.204405,8.228375,8.262485,8.284714,8.294851,8.28918,8.279532,8.272547,8.278036,8.289223,8.296175,8.304596,8.312062,8.318403,8.320193,8.322452,8.324652,8.323778,8.320432,8.31198,8.302949,8.291967,8.282671,8.2652645,8.2468605,8.228921,8.206299,8.179143,8.126068,8.182898,7.865752,7.1901383,6.28375,5.6469035,5.197504,5.185026,5.173096,5.154089,5.137039,5.1341653,5.1286163,5.126765,5.1308203,5.140388,5.15626,5.170738,5.178989,5.181726,5.1842422,5.185605,5.1871305,5.1875896,5.1866064,5.186055,5.1866627,5.1874223,5.187935,5.1868434,5.1847196,5.186526,5.1910715,5.197198,5.2028913,5.211387,5.220427,5.233506,5.246473,5.2580256,5.2682776
4.5536733,4.576799,4.54819,4.683925,4.817859,5.6169195,6.83912,7.8578506,7.9955087,8.096055,8.123075,8.162647,8.182462,8.214728,8.2382,8.271175,8.292667,8.303667,8.299463,8.2905445,8.283128,8.286806,8.296427,8.303568,8.312728,8.320602,8.327376,8.329419,8.331828,8.334019,8.332962,8.329365,8.320483,8.311079,8.299646,8.290077,8.272668,8.25417,8.234869,8.211056,8.185447,8.131861,8.183484,7.858908,7.1729913,6.2749066,5.6668077,5.239586,5.225951,5.2129264,5.194249,5.1763806,5.1720567,5.166932,5.1666536,5.1705947,5.1789694,5.1938815,5.207826,5.21597,5.2189455,5.221579,5.223132,5.224851,5.2255926,5.2248087,5.2246137,5.2252626,5.228037,5.2318316,5.2306952,5.2252216,5.2252955,5.230258,5.2365084,5.242354,5.251163,5.2606077,5.274235,5.287748,5.299816,5.3104854
4.5928497,4.6145954,4.581924,4.720243,4.8699026,5.671658,6.875327,7.8761067,8.009831,8.107063,8.133027,8.171665,8.191407,8.22365,8.247185,8.279049,8.299525,8.3118725,8.309641,8.301077,8.292597,8.294326,8.302355,8.309584,8.319342,8.327505,8.334589,8.336809,8.33935,8.341583,8.340277,8.336285,8.327182,8.317814,8.306219,8.296454,8.279083,8.260581,8.240484,8.216018,8.191653,8.137804,8.185657,7.8561006,7.16373,6.2720714,5.6840014,5.2724643,5.258491,5.245052,5.2266626,5.207401,5.200894,5.1963778,5.198542,5.2031784,5.210727,5.22436,5.237181,5.2452326,5.248704,5.251563,5.253354,5.2553053,5.2562065,5.2552805,5.2554946,5.2569146,5.2611985,5.266526,5.2653017,5.2581587,5.257342,5.262475,5.268749,5.2746572,5.283635,5.2933235,5.3072906,5.321149,5.333543,5.3444676
4.6424637,4.663334,4.6257596,4.7667646,4.93485,5.7393227,6.920467,7.899389,8.028177,8.12133,8.14609,8.183822,8.203741,8.236983,8.261635,8.292217,8.310671,8.323529,8.323143,8.316356,8.307989,8.306736,8.311817,8.319085,8.329657,8.338149,8.345555,8.347947,8.350466,8.352473,8.351266,8.347649,8.33798,8.327541,8.315283,8.3054495,8.288032,8.269535,8.249002,8.224335,8.201585,8.147416,8.19212,7.8546495,7.1469836,6.260154,5.7021303,5.3152366,5.301882,5.2885118,5.270292,5.250009,5.2418613,5.238017,5.242292,5.2479286,5.2549453,5.26618,5.2764845,5.284163,5.2884226,5.2915134,5.2936783,5.295992,5.297712,5.2976456,5.2993383,5.3021035,5.3078403,5.3139586,5.3127456,5.304809,5.303529,5.3086715,5.3148575,5.3207245,5.329764,5.339637,5.353919,5.368144,5.380885,5.3921137
4.67488,4.6960807,4.6548905,4.798045,4.9802523,5.787678,6.9531517,7.916542,8.04151,8.131678,8.155784,8.193148,8.213404,8.248044,8.274166,8.304044,8.320665,8.3327875,8.332933,8.3284025,8.321277,8.317325,8.319591,8.327214,8.338776,8.347505,8.355086,8.35761,8.359893,8.361352,8.360415,8.357754,8.347298,8.335033,8.322098,8.312677,8.29522,8.27662,8.256133,8.231708,8.2100725,8.155533,8.199047,7.8541913,7.1292443,6.2430873,5.710973,5.3459086,5.333532,5.320447,5.302167,5.2819853,5.273913,5.270362,5.2749405,5.2811985,5.288254,5.2970595,5.3046265,5.311895,5.3168907,5.3199687,5.322328,5.324933,5.3278584,5.329442,5.3332067,5.3373075,5.3441396,5.3505335,5.349264,5.3409553,5.339457,5.3446045,5.350695,5.3564754,5.365487,5.375434,5.3898935,5.404359,5.4173307,5.4287844
4.7246404,4.7454743,4.701467,4.845247,5.0364704,5.8429756,6.993714,7.9414625,8.060731,8.14607,8.168847,8.205261,8.225775,8.262207,8.290359,8.319131,8.333028,8.343636,8.3443365,8.343524,8.339491,8.334162,8.333323,8.339041,8.349541,8.358571,8.366478,8.368784,8.371044,8.372626,8.373026,8.372159,8.36144,8.347177,8.332049,8.321236,8.303224,8.285019,8.264554,8.240432,8.220419,8.1660795,8.20929,7.855966,7.108594,6.2239847,5.7269783,5.39163,5.3809123,5.3684216,5.349999,5.330095,5.3223577,5.319202,5.324007,5.3308015,5.3380117,5.345466,5.3512754,5.3576155,5.3626337,5.3662844,5.3696337,5.372763,5.3767633,5.379935,5.3845615,5.388295,5.393485,5.3976445,5.397319,5.3925905,5.392801,5.3972354,5.402974,5.4085526,5.4174104,5.427366,5.4419785,5.456714,5.469937,5.481674
4.7626486,4.782587,4.738184,4.880715,5.070626,5.8729672,7.018615,7.9598165,8.074831,8.156268,8.177755,8.213126,8.233627,8.271137,8.30065,8.328553,8.340463,8.349732,8.35076,8.353004,8.352115,8.347507,8.345001,8.347518,8.355467,8.364802,8.373061,8.374857,8.377249,8.37953,8.381565,8.382331,8.372075,8.356831,8.339308,8.326126,8.307374,8.289827,8.269324,8.245369,8.226551,8.172822,8.2166195,7.8585415,7.0966506,6.2136574,5.74067,5.425672,5.416213,5.404215,5.3856864,5.3660183,5.358574,5.3556986,5.3606205,5.3675523,5.3749013,5.382948,5.3890877,5.394477,5.3987308,5.40323,5.4078846,5.4115925,5.4160137,5.4198503,5.423493,5.425107,5.4264994,5.4269295,5.4279933,5.429003,5.431989,5.4353633,5.4406967,5.4460897,5.4547763,5.4646907,5.479365,5.494262,5.507629,5.5195575
4.8211384,4.8393135,4.79434,4.935251,5.1239724,5.9189596,7.053768,7.982966,8.092073,8.168573,8.188872,8.223471,8.244327,8.283453,8.31465,8.341081,8.350016,8.357659,8.359036,8.363535,8.365506,8.362872,8.360179,8.360203,8.365037,8.37276,8.380494,8.382843,8.387005,8.391213,8.395024,8.396377,8.386421,8.370716,8.349648,8.332399,8.312542,8.296159,8.275317,8.251313,8.23409,8.182027,8.227504,7.8664484,7.091555,6.212971,5.7669325,5.4753027,5.468545,5.457788,5.4387717,5.4192157,5.4121847,5.4096637,5.4147277,5.4219813,5.4296327,5.438095,5.444428,5.4493318,5.4534454,5.45959,5.4649425,5.466921,5.468666,5.4705153,5.4734807,5.4761615,5.478911,5.4798956,5.483087,5.486552,5.490719,5.493466,5.498344,5.5033684,5.511641,5.521301,5.535827,5.550728,5.5640736,5.5760813
4.866672,4.883202,4.8379707,4.977648,5.1652293,5.9535456,7.0785117,7.9975777,8.102483,8.175812,8.195705,8.230214,8.251544,8.291812,8.323983,8.34924,8.356035,8.362728,8.364256,8.368903,8.371839,8.371407,8.370181,8.369754,8.372668,8.377947,8.384658,8.388213,8.394642,8.400827,8.405526,8.406144,8.396213,8.380854,8.357093,8.336351,8.315638,8.30027,8.278982,8.254752,8.23858,8.1883135,8.235639,7.8754005,7.097149,6.2234507,5.7912526,5.512089,5.507882,5.498385,5.4787793,5.459183,5.4525003,5.450222,5.4553523,5.462861,5.4707704,5.4793897,5.485843,5.491034,5.4955606,5.5028205,5.507707,5.5069814,5.5049887,5.5036855,5.5066752,5.5126524,5.520616,5.5257173,5.5304995,5.532056,5.5352845,5.5381503,5.5427747,5.547458,5.555308,5.5646424,5.5788913,5.593631,5.606797,5.618723
4.933624,4.9480124,4.9024625,5.0399466,5.2249207,6.003362,7.115234,8.019906,8.117604,8.185679,8.205279,8.239435,8.260903,8.3018265,8.334697,8.359084,8.364358,8.370469,8.372195,8.376678,8.380446,8.382774,8.383854,8.383317,8.385198,8.389545,8.395959,8.400104,8.407573,8.414629,8.419776,8.420155,8.410283,8.394902,8.367531,8.342398,8.320488,8.306309,8.284493,8.260057,8.245116,8.197199,8.246557,7.8892303,7.1114025,6.246959,5.8309746,5.5661306,5.5649767,5.556952,5.5365624,5.5172963,5.51162,5.509935,5.515075,5.5228453,5.5311584,5.540838,5.5482655,5.554794,5.5580087,5.558645,5.5584455,5.559443,5.561383,5.5622206,5.567617,5.574994,5.585143,5.5922027,5.5975657,5.597968,5.6005774,5.603467,5.607747,5.611994,5.6192937,5.628204,5.642097,5.656634,5.6695657,5.6813927
4.990065,5.0029607,4.9573674,5.092832,5.275078,6.0444913,7.1448255,8.037243,8.129207,8.193256,8.212827,8.246699,8.268073,8.308788,8.341534,8.365803,8.371058,8.377292,8.379089,8.382946,8.386733,8.39085,8.393902,8.393826,8.396035,8.400998,8.407768,8.411809,8.418916,8.425588,8.4304085,8.430713,8.420977,8.405691,8.375866,8.347673,8.324925,8.311555,8.289331,8.26474,8.250556,8.204561,8.255142,7.902687,7.131989,6.27774,5.8698506,5.6118712,5.6126137,5.6054597,5.5844526,5.5657506,5.56132,5.56039,5.565462,5.5725927,5.580257,5.590644,5.5992208,5.6071773,5.608935,5.601756,5.596616,5.6017084,5.6109715,5.616655,5.625051,5.631928,5.6412606,5.648006,5.652744,5.652579,5.6548266,5.657729,5.661748,5.665661,5.672528,5.68109,5.6946745,5.7090144,5.72172,5.7334275
5.063847,5.0754347,5.0301967,5.163454,5.3431234,6.0996456,7.1811924,8.056439,8.143787,8.204529,8.22375,8.257437,8.279113,8.3193035,8.351264,8.375585,8.381404,8.387767,8.389393,8.392795,8.396475,8.401453,8.4054165,8.405416,8.407571,8.412632,8.419533,8.423636,8.430962,8.437952,8.442353,8.441729,8.432771,8.419089,8.386916,8.354837,8.331567,8.319695,8.296949,8.271947,8.258729,8.215437,8.26729,7.922901,7.166255,6.3273034,5.926701,5.674279,5.676689,5.6698327,5.647554,5.629702,5.627541,5.629063,5.6348763,5.63674,5.6372886,5.644838,5.6542463,5.662188,5.6658916,5.663352,5.6629634,5.6696596,5.680099,5.6871777,5.696577,5.703541,5.7128615,5.7196307,5.7238827,5.723006,5.724746,5.7275653,5.731185,5.734653,5.7409463,5.7490425,5.7621803,5.7762027,5.7885637,5.800052
5.1334963,5.144477,5.0999527,5.231338,5.409327,6.1518464,7.21083,8.068376,8.155044,8.215282,8.233958,8.267702,8.29005,8.329758,8.36069,8.385128,8.391721,8.398297,8.3997555,8.402912,8.406329,8.411182,8.415131,8.415177,8.417383,8.422426,8.429344,8.433514,8.440944,8.448094,8.451742,8.449867,8.44158,8.429767,8.397119,8.363229,8.339702,8.328367,8.305016,8.279712,8.267183,8.226364,8.278561,7.944302,7.208683,6.387135,5.987406,5.7342587,5.7369137,5.73014,5.7076945,5.690917,5.6903477,5.6926823,5.6977615,5.6950583,5.690252,5.6948442,5.7041426,5.7112117,5.7178583,5.724814,5.7325616,5.73896,5.7468987,5.753078,5.7619624,5.7691236,5.778467,5.785015,5.788846,5.787594,5.7890067,5.7917056,5.7949686,5.798055,5.803852,5.8115306,5.8242373,5.8379183,5.849916,5.8611183
5.21328,5.2234554,5.180061,5.3084416,5.4822893,6.2064285,7.238282,8.076367,8.164905,8.226444,8.244367,8.2783785,8.3018055,8.341678,8.372017,8.396224,8.402871,8.409576,8.411146,8.414086,8.417415,8.422748,8.4271965,8.427292,8.429408,8.43435,8.441342,8.44584,8.453222,8.459999,8.462515,8.459394,8.450923,8.440012,8.4086,8.375496,8.351113,8.338166,8.313852,8.288698,8.276797,8.238592,8.291144,7.96864,7.257475,6.45587,6.05669,5.801921,5.8039865,5.7982297,5.7779713,5.76258,5.7617636,5.758886,5.7579184,5.7578382,5.76018,5.766497,5.7744164,5.7812,5.7882547,5.796848,5.806027,5.8123493,5.819879,5.825956,5.8349466,5.8424306,5.851812,5.8580413,5.8616333,5.8603587,5.8617005,5.86432,5.8672647,5.869954,5.8752265,5.882445,5.894673,5.907952,5.919514,5.93033
5.3006406,5.31077,5.268025,5.3949184,5.570674,6.2753773,7.268879,8.080092,8.1732,8.2381,8.25514,8.289498,8.314175,8.35473,8.384925,8.408414,8.414258,8.421043,8.423159,8.426189,8.429615,8.435224,8.440362,8.44151,8.44447,8.44953,8.456324,8.460695,8.46703,8.472407,8.473387,8.46949,8.4603,8.4493685,8.420551,8.39046,8.365332,8.349623,8.324176,8.299269,8.287737,8.251822,8.302046,7.9956694,7.3246336,6.55001,6.1407037,5.874248,5.8744497,5.8702874,5.8542514,5.8406653,5.8383803,5.8300276,5.823743,5.8284545,5.8402257,5.849474,5.8559694,5.862701,5.86909,5.8761497,5.883912,5.889959,5.897502,5.903462,5.9125075,5.920268,5.9295382,5.9352612,5.9386287,5.937543,5.938929,5.941452,5.944124,5.9464793,5.951309,5.958135,5.9699516,5.982866,5.9940224,6.004425
5.3829064,5.393786,5.350976,5.4783635,5.662078,6.350763,7.303191,8.084497,8.181392,8.249071,8.265158,8.299673,8.325454,8.367291,8.398168,8.4206085,8.424745,8.431452,8.434401,8.437768,8.44137,8.446651,8.452624,8.456438,8.461867,8.467619,8.473641,8.476583,8.480091,8.482858,8.481751,8.477538,8.467601,8.456226,8.428844,8.40073,8.375093,8.357657,8.331542,8.307269,8.297097,8.264149,8.309451,8.022953,7.4074907,6.6645107,6.2303343,5.9395366,5.937567,5.935338,5.9239955,5.9126143,5.909157,5.9009743,5.8955936,5.9012246,5.913568,5.9231706,5.9296813,5.9364495,5.942804,5.9498534,5.9575477,5.963484,5.9708776,5.9767156,5.985707,5.9935784,6.0025916,6.007782,6.0108004,6.009754,6.0110636,6.01347,6.015908,6.0180182,6.0225267,6.029078,6.040616,6.0532804,6.0641456,6.074228
5.4860344,5.4983754,5.453867,5.5852084,5.790894,6.4632134,7.352782,8.087749,8.190612,8.26328,8.27886,8.31357,8.34005,8.381808,8.411957,8.433169,8.436397,8.44338,8.447327,8.451318,8.45529,8.460364,8.466997,8.473036,8.4804325,8.486443,8.492117,8.494728,8.496871,8.497898,8.496026,8.492473,8.48221,8.470211,8.446496,8.423149,8.398199,8.378374,8.350636,8.324912,8.312656,8.279281,8.316887,8.051168,7.495735,6.7909045,6.336582,6.02432,6.019549,6.01831,6.011055,6.0014114,5.99675,5.990358,5.987811,5.993305,6.0036483,6.0127835,6.019588,6.026307,6.032565,6.039545,6.0471087,6.052876,6.060033,6.065682,6.07447,6.0822988,6.090841,6.095348,6.0978813,6.0968328,6.097968,6.100173,6.102306,6.104158,6.108342,6.114642,6.125937,6.1383924,6.1490073,6.1587768
5.5706086,5.583762,5.5348535,5.670555,5.903332,6.5661674,7.397181,8.08848,8.196823,8.274597,8.290503,8.325525,8.352069,8.3921175,8.420044,8.440641,8.444673,8.45209,8.456337,8.460617,8.464636,8.469587,8.475753,8.481229,8.487781,8.492649,8.498767,8.503428,8.507789,8.509661,8.50956,8.507642,8.498134,8.486061,8.468396,8.452245,8.429195,8.406439,8.376096,8.346506,8.327846,8.289979,8.322609,8.069396,7.5463266,6.8679223,6.4133596,6.097184,6.0901,6.0884414,6.0830965,6.0741625,6.0688,6.0629497,6.061485,6.0670404,6.0767474,6.085635,6.092368,6.0989213,6.10501,6.1118565,6.119249,6.1248293,6.1317487,6.137224,6.1457977,6.1535254,6.1616497,6.165625,6.167761,6.166685,6.16763,6.169623,6.171464,6.1730866,6.1769614,6.1830764,6.1943464,6.2069273,6.2177076,6.227557
5.687808,5.7037992,5.6569667,5.8018823,6.0636735,6.706204,7.4575605,8.090923,8.20816,8.293757,8.309858,8.345059,8.371493,8.408133,8.43184,8.451242,8.456936,8.465771,8.471485,8.47714,8.482589,8.489233,8.497166,8.50393,8.511697,8.517194,8.524556,8.53064,8.536413,8.538828,8.539468,8.538043,8.528165,8.515411,8.501465,8.490262,8.468716,8.444122,8.411799,8.378759,8.354882,8.311401,8.332646,8.089353,7.603647,6.961522,6.5155168,6.2019897,6.1931014,6.1895328,6.1835637,6.173649,6.1675887,6.162326,6.1621337,6.167437,6.175985,6.184223,6.1906476,6.196796,6.2025375,6.2090764,6.216138,6.221412,6.227967,6.233179,6.2414007,6.248912,6.2564287,6.2597103,6.2613363,6.260238,6.2609563,6.262701,6.264297,6.265775,6.269493,6.275344,6.285936,6.297531,6.307114,6.315789
5.774047,5.7943525,5.7564054,5.9106393,6.185638,6.806515,7.5008054,8.093946,8.218731,8.310531,8.326365,8.361899,8.388845,8.422513,8.442064,8.4600315,8.467061,8.477404,8.485018,8.492451,8.500173,8.5097,8.521418,8.53169,8.543255,8.551604,8.560459,8.565972,8.570696,8.57245,8.571672,8.568922,8.557473,8.543772,8.528422,8.516317,8.494506,8.470185,8.437775,8.404196,8.380278,8.333955,8.342525,8.102296,7.6442666,7.0305614,6.5923657,6.282472,6.273304,6.267781,6.2594585,6.247621,6.2411222,6.2362247,6.236941,6.2418933,6.2494,6.2569885,6.263076,6.268824,6.2742367,6.280469,6.287225,6.29224,6.298506,6.303514,6.3114643,6.3187995,6.3258877,6.3287015,6.329994,6.328897,6.329521,6.331198,6.33315,6.3351135,6.339191,6.344791,6.3541846,6.36377,6.3708763,6.3772726
5.912839,5.9334035,5.9051023,6.0701685,6.362417,6.9516573,7.5647807,8.100963,8.236768,8.337344,8.3525715,8.385523,8.409287,8.4392,8.456574,8.473644,8.481995,8.495395,8.506736,8.517081,8.527337,8.5396385,8.554288,8.567043,8.580883,8.590745,8.599938,8.604564,8.607892,8.608739,8.606313,8.602167,8.588369,8.57276,8.555253,8.54222,8.521331,8.498771,8.466634,8.432246,8.408388,8.359307,8.353373,8.119205,7.697163,7.123196,6.7005625,6.4002833,6.3920226,6.384056,6.371582,6.356477,6.34931,6.344937,6.347027,6.3514786,6.3574514,6.3640494,6.3696146,6.3748093,6.379803,6.3856335,6.391984,6.396659,6.4025135,6.407212,6.414719,6.4217653,6.428051,6.429931,6.430793,6.4300337,6.430449,6.431461,6.430933,6.4302206,6.432886,6.43838,6.447148,6.456079,6.4624643,6.4679766
6.0226364,6.0386395,6.0145907,6.186075,6.4912176,7.0581737,7.612358,8.10746,8.251845,8.358864,8.373257,8.401828,8.420255,8.447754,8.466376,8.483632,8.492499,8.508931,8.523922,8.536793,8.548432,8.5618105,8.576742,8.589365,8.602419,8.611379,8.619497,8.623552,8.626091,8.626372,8.62321,8.618622,8.603187,8.585818,8.566966,8.553891,8.534841,8.514457,8.482378,8.446743,8.422322,8.371854,8.358361,8.130166,7.731752,7.1850553,6.775014,6.4842067,6.4787507,6.470189,6.4541674,6.436215,6.4283237,6.4242926,6.4275436,6.4317074,6.4365788,6.442472,6.4476748,6.4525175,6.4572697,6.4628572,6.4689584,6.4734216,6.4789963,6.4834576,6.49064,6.4975133,6.5031037,6.50406,6.5047855,6.504774,6.505102,6.505136,6.500353,6.4949317,6.4950204,6.5006638,6.509856,6.520085,6.5281796,6.5349298
6.185422,6.2018313,6.180504,6.3502603,6.659005,7.190966,7.6769066,8.120924,8.267764,8.380106,8.398286,8.426788,8.441733,8.467539,8.486581,8.504413,8.513944,8.530595,8.545271,8.5576515,8.568257,8.580116,8.5934105,8.605174,8.617135,8.624952,8.631769,8.635092,8.636736,8.636574,8.631594,8.624912,8.606568,8.587175,8.566738,8.553483,8.533936,8.514857,8.488627,8.460329,8.44234,8.3942,8.370573,8.149967,7.7819157,7.282445,6.9135447,6.639473,6.613742,6.5888247,6.571352,6.5539904,6.5489154,6.546289,6.5491986,6.552089,6.5552397,6.5596466,6.5639114,6.5679173,6.5721097,6.5771475,6.5827665,6.5868416,6.592131,6.596696,6.603229,6.60888,6.6132817,6.61412,6.6117992,6.6076016,6.6054583,6.605862,6.6011505,6.5958357,6.595487,6.6005507,6.6094146,6.619615,6.627954,6.6347666
6.306972,6.328344,6.3076916,6.469112,6.768967,7.272679,7.721037,8.134011,8.2758665,8.38909,8.413028,8.445597,8.461059,8.487056,8.5056095,8.524101,8.533996,8.547999,8.558725,8.56805,8.575974,8.584778,8.595526,8.6060915,8.617103,8.624078,8.63002,8.632852,8.633962,8.633665,8.62695,8.617962,8.597347,8.57693,8.555656,8.542208,8.520459,8.501257,8.482703,8.465211,8.456346,8.412733,8.382529,8.167042,7.818705,7.358336,7.0334845,6.7736225,6.718413,6.672291,6.6561017,6.642069,6.6413417,6.6402206,6.641594,6.6429954,6.6448026,6.6478057,6.6511016,6.654272,6.657909,6.66241,6.667565,6.6712627,6.6762857,6.6810102,6.686795,6.6909194,6.6943293,6.695831,6.689685,6.679412,6.6741343,6.6758685,6.67506,6.674112,6.675466,6.679595,6.687631,6.696644,6.703813,6.709636
6.4634557,6.4969053,6.497966,6.659122,6.9309697,7.3815117,7.780712,8.155241,8.292643,8.403857,8.428182,8.466021,8.488657,8.517598,8.534278,8.5532465,8.563479,8.573603,8.579451,8.586446,8.593929,8.602752,8.613402,8.622998,8.632752,8.63912,8.643958,8.645736,8.645021,8.643086,8.635312,8.62647,8.606429,8.586753,8.565607,8.552049,8.531855,8.514701,8.497169,8.480794,8.4754715,8.434092,8.394685,8.189598,7.876687,7.461582,7.165664,6.9199214,6.855855,6.8026285,6.7861915,6.771696,6.7708054,6.7694316,6.7705145,6.77039,6.770315,6.771466,6.773501,6.7757053,6.778663,6.782528,6.7864513,6.7889056,6.7907767,6.7914143,6.7931767,6.7957406,6.797975,6.7990956,6.793763,6.7850494,6.780377,6.781678,6.7819505,6.782457,6.7840533,6.787304,6.794168,6.8018036,6.807657,6.812369
6.5796914,6.6231885,6.6524224,6.8190274,7.0578647,7.459695,7.8269687,8.176678,8.309899,8.416687,8.43786,8.479955,8.511603,8.544272,8.558814,8.577542,8.587615,8.594948,8.597946,8.60448,8.613488,8.624634,8.637033,8.646266,8.655129,8.661364,8.665513,8.666387,8.663927,8.660208,8.65245,8.645399,8.627848,8.6100445,8.589847,8.57631,8.559338,8.544363,8.522164,8.499104,8.4912405,8.449451,8.403832,8.209211,7.9277406,7.5417767,7.2496066,7.011481,6.958959,6.912817,6.8946633,6.876929,6.872736,6.869787,6.8713727,6.8702607,6.8687487,6.868468,6.869446,6.870721,6.872923,6.8761916,6.878883,6.8800716,6.878497,6.8744183,6.872063,6.8737254,6.8751564,6.8753448,6.873739,6.871264,6.8695374,6.869334,6.868312,6.867696,6.868394,6.8710794,6.876895,6.883452,6.8882885,6.8921566
6.7345624,6.771397,6.827824,7.002044,7.2074747,7.5578914,7.8897333,8.20878,8.3322935,8.434018,8.457146,8.503393,8.53938,8.573526,8.586307,8.602903,8.611462,8.619306,8.624302,8.6327,8.643487,8.656319,8.66957,8.678529,8.686733,8.692733,8.696456,8.696872,8.693984,8.690145,8.682047,8.674634,8.657402,8.640359,8.620726,8.607335,8.590756,8.575299,8.549883,8.523319,8.513967,8.472573,8.421401,8.240534,7.996388,7.6447706,7.357148,7.1278863,7.08899,7.0486784,7.02466,7.002744,6.997716,6.9935694,6.99444,6.9917436,6.988662,6.9868145,6.9862804,6.985009,6.984804,6.9865437,6.9883614,6.988924,6.9874773,6.9843574,6.982263,6.9830213,6.983458,6.9831247,6.982229,6.9813027,6.9799356,6.9788594,6.9769397,6.975572,6.975174,6.9767966,6.9812336,6.986544,6.990304,6.993258
6.8779554,6.903666,6.968884,7.141443,7.3263035,7.6443467,7.951621,8.246987,8.360018,8.457154,8.484247,8.5321045,8.567092,8.600638,8.613089,8.6274,8.634252,8.644945,8.654734,8.666079,8.678373,8.692217,8.705721,8.714663,8.722562,8.728224,8.731766,8.732228,8.729919,8.726952,8.718823,8.710494,8.692894,8.676101,8.656783,8.643376,8.625109,8.607406,8.580486,8.552919,8.541329,8.499687,8.447147,8.278444,8.059165,7.735028,7.460182,7.2408433,7.2054625,7.164399,7.135802,7.1112795,7.1067414,7.101866,7.101588,7.0974813,7.0931783,7.0896993,7.0874524,7.0837145,7.081348,7.081641,7.0831017,7.0837035,7.084226,7.084571,7.0847754,7.0848846,7.0843954,7.0837092,7.081653,7.0794473,7.0769715,7.0755186,7.0728717,7.070853,7.06943,7.0700626,7.073324,7.077635,7.080571,7.0827794
