4.5533934,4.559327,4.564902,4.5692244,4.5722923,4.574948,4.5770435,4.579271,4.5807486,4.582533,4.5836267,4.585618,4.5873327,4.5895443,4.5909877,4.5938315,4.5966024,4.601013,4.605199,4.6102777,4.6150723,4.620896,4.6268015,4.6326632,4.6378193,4.6406612,4.6439853,4.647846,4.6502733,4.649279,4.6502795,4.652668,4.658896,4.665177,4.6773353,4.6889634,4.706397,4.7243614,4.723296,4.7795506,4.777279,5.3438096,7.087169,8.98967,9.895285,10.35857,10.58578,10.685278,10.7287035,10.739928,10.731894,10.706472,10.680748,10.633436,10.592311,10.549631,10.528831,10.509496,10.502615,10.490843,10.482725,10.474638,10.474175,10.4812155,10.495256,10.507178,10.522983,10.535618,10.551634,10.564071,10.572698,10.572597,10.571246,10.569296,10.567168,10.565828,10.564552,10.562521,10.555229,10.542311,10.522187,10.492607,10.450763,10.406923,10.371545,10.353941,10.359738,10.372845,10.38633,10.37601,10.367364,10.230436,10.068349,9.570764,9.009457,7.53443,6.071799,5.097771,4.957836
4.5585656,4.5650206,4.571018,4.5756345,4.5789533,4.5818753,4.5842323,4.5866814,4.588238,4.590055,4.591146,4.59305,4.5946455,4.5967007,4.5980406,4.6008224,4.603603,4.607995,4.6121526,4.61721,4.6219306,4.627559,4.633178,4.638814,4.6435714,4.6459327,4.6485553,4.6519475,4.653323,4.6512194,4.650707,4.6520796,4.6570187,4.6625047,4.674017,4.6856003,4.702489,4.7213554,4.6509604,4.7533984,5.2453365,6.400905,8.533179,10.441763,10.9712,10.959004,11.000714,10.987425,10.989327,10.982728,10.9730625,10.970647,10.977574,10.981356,10.980416,10.978255,10.976467,10.980154,10.987787,10.998568,11.0094185,11.018389,11.028999,11.0442915,11.062368,11.076466,11.090506,11.098916,11.109977,11.11937,11.128852,11.132674,11.139534,11.145215,11.153862,11.160634,11.17012,11.178733,11.195335,11.212157,11.229206,11.24267,11.256978,11.265202,11.269561,11.259769,11.241985,11.212212,11.190027,11.15645,11.138924,11.072224,11.01096,10.792154,10.51314,9.051236,7.3181353,5.771971,5.0948977
4.562744,4.569584,4.5759115,4.580781,4.584317,4.587465,4.590029,4.5926385,4.594243,4.596051,4.5971074,4.5988927,4.600356,4.6022396,4.603468,4.6061554,4.60891,4.6132402,4.617343,4.622349,4.6270046,4.6324997,4.637959,4.6434917,4.6480646,4.6502857,4.6523404,4.654972,4.655233,4.6523404,4.6506763,4.6511765,4.6551547,4.6601644,4.6711617,4.6825924,4.6991167,4.7189484,4.567876,4.719462,5.8906264,7.6008205,9.364028,10.629302,10.958987,10.911734,10.985327,11.014404,11.0082445,10.987873,10.969876,10.964226,10.974977,10.984139,10.9874735,10.992076,10.995496,11.002804,11.011341,11.024916,11.038166,11.049047,11.05982,11.073995,11.089177,11.100474,11.110215,11.115007,11.120799,11.126023,11.130298,11.130958,11.13323,11.135683,11.13944,11.142446,11.146615,11.150367,11.158199,11.165091,11.16931,11.168868,11.167249,11.159962,11.151741,11.132704,11.112815,11.076264,11.04036,11.002679,10.993213,10.939584,10.882611,10.73168,10.551358,9.579189,8.340523,6.5499334,5.233979
4.568775,4.576083,4.58282,4.588002,4.591799,4.595216,4.5980353,4.6008444,4.602512,4.6042953,4.605285,4.606895,4.608182,4.6098127,4.6108575,4.6133256,4.615939,4.620054,4.6239696,4.628743,4.6331816,4.6384025,4.643611,4.648959,4.653368,4.655674,4.657108,4.6584873,4.6572123,4.653508,4.6507297,4.6503973,4.653512,4.6581373,4.669127,4.68098,4.696196,4.7166104,4.4935565,4.7028217,6.5451145,8.803298,10.206007,10.860596,11.054766,11.000426,11.055676,11.0787325,11.064509,11.04506,11.03655,11.038109,11.048889,11.061468,11.069164,11.078515,11.084645,11.094795,11.105071,11.121943,11.138022,11.151066,11.162398,11.176221,11.189617,11.199093,11.205659,11.207494,11.209254,11.211508,11.212342,11.2109995,11.21154,11.213605,11.215884,11.217267,11.2187805,11.22003,11.224334,11.228034,11.228798,11.225125,11.219761,11.208689,11.197259,11.175235,11.153664,11.114533,11.076409,11.032604,11.013122,10.965486,10.923345,10.838374,10.741259,10.097769,9.1721,7.1732664,5.382891
4.5732493,4.58086,4.587863,4.593249,4.5972133,4.6008067,4.6038017,4.6067533,4.6084714,4.6102376,4.611171,4.612647,4.6138115,4.615219,4.616072,4.6182837,4.6207056,4.624533,4.6281953,4.632636,4.6367865,4.64171,4.64671,4.651931,4.656285,4.6587653,4.6597624,4.6600504,4.65764,4.653552,4.6502647,4.649523,4.652326,4.6569195,4.6681485,4.6803803,4.693549,4.7139444,4.4640865,4.713968,6.9114385,9.434,10.567239,10.85588,11.046349,11.057594,11.088673,11.0902195,11.07827,11.072453,11.080676,11.090243,11.094959,11.102654,11.108622,11.115661,11.1205015,11.12989,11.140295,11.157021,11.17287,11.185499,11.196157,11.209144,11.221511,11.23018,11.235754,11.236785,11.237555,11.239145,11.239052,11.236967,11.237342,11.239929,11.242097,11.242846,11.243096,11.243015,11.245639,11.248096,11.2480545,11.243831,11.237179,11.225034,11.212829,11.191797,11.17179,11.138698,11.111009,11.06597,11.031248,10.975009,10.935961,10.858457,10.771571,10.231121,9.419337,7.388969,5.477508
4.577684,4.585675,4.592975,4.598571,4.6027255,4.6065483,4.6097755,4.6129503,4.614779,4.6166115,4.6175504,4.6189713,4.6200657,4.621181,4.621694,4.6235714,4.6257987,4.629217,4.6324515,4.6363077,4.6399446,4.6443796,4.64907,4.6542134,4.658403,4.6606016,4.660814,4.6600943,4.656651,4.6521764,4.6482563,4.646926,4.649363,4.6540465,4.664415,4.6755295,4.686089,4.7075276,4.4413285,4.7339373,7.2353935,9.990991,10.9344225,10.931094,11.078096,11.10254,11.112813,11.107495,11.108428,11.115058,11.125184,11.134158,11.136248,11.14176,11.147167,11.157203,11.166665,11.1794195,11.190879,11.208286,11.223955,11.236951,11.247457,11.259274,11.270296,11.278358,11.283794,11.285067,11.286133,11.287704,11.288183,11.287062,11.28765,11.289585,11.290866,11.290869,11.289901,11.28857,11.289186,11.289254,11.285525,11.277328,11.266857,11.251099,11.235418,11.212069,11.190721,11.160372,11.138547,11.099247,11.06668,11.00767,10.96102,10.891599,10.825483,10.410661,9.731979,7.664079,5.607675
4.5790443,4.587234,4.594666,4.600343,4.60459,4.60855,4.611931,4.6152654,4.61718,4.619076,4.6200333,4.621434,4.622496,4.623331,4.623483,4.6249695,4.626947,4.6299353,4.632764,4.636072,4.639253,4.643266,4.6477456,4.653012,4.657076,4.6586237,4.658,4.6567893,4.652932,4.648333,4.644084,4.6423473,4.644727,4.6497602,4.6589985,4.668305,4.672459,4.6931553,4.4537344,4.794584,7.388341,10.196485,11.07958,10.981495,11.096076,11.1094475,11.113853,11.114745,11.129829,11.143635,11.147111,11.15127,11.153673,11.159771,11.166012,11.180352,11.194832,11.211113,11.223313,11.240905,11.2559185,11.269028,11.27943,11.2902355,11.300344,11.308243,11.314285,11.316491,11.318735,11.320877,11.32267,11.323044,11.323904,11.324724,11.325029,11.324566,11.322938,11.320954,11.320246,11.318309,11.310874,11.2984705,11.28426,11.26499,11.246015,11.219878,11.196451,11.166362,11.145834,11.114439,11.093622,11.036197,10.978856,10.905375,10.84452,10.48444,9.869598,7.811081,5.714921
4.5782943,4.5865836,4.5941067,4.5998883,4.6042647,4.6083865,4.6119075,4.615358,4.61732,4.619203,4.620114,4.6213937,4.6223464,4.622836,4.6226115,4.623544,4.625095,4.627666,4.630251,4.633175,4.6360254,4.63964,4.6439886,4.649767,4.6539,4.6544414,4.6526804,4.6511135,4.6469574,4.642183,4.6375546,4.635393,4.63782,4.6433682,4.6519675,4.659718,4.649947,4.665121,4.484929,4.90791,7.5760713,10.399743,11.212191,11.021202,11.104145,11.113057,11.123837,11.133756,11.149803,11.16323,11.165471,11.17029,11.174766,11.186462,11.198497,11.21686,11.23174,11.248809,11.261115,11.278785,11.293649,11.306676,11.316843,11.327209,11.336793,11.344362,11.350044,11.35198,11.353806,11.355576,11.356944,11.357132,11.35735,11.357462,11.357008,11.356131,11.353805,11.351198,11.349614,11.346747,11.337878,11.323988,11.3083515,11.28792,11.268454,11.241257,11.216298,11.183468,11.159231,11.128934,11.113844,11.063505,11.010098,10.940921,10.882846,10.555113,9.977522,7.9256144,5.806199
4.5736327,4.5816617,4.5889025,4.5944295,4.5985866,4.6025333,4.605974,4.6093264,4.6111984,4.6129274,4.6137137,4.6147966,4.6156087,4.6157703,4.6152177,4.6154904,4.6164346,4.6184163,4.620721,4.6234417,4.626311,4.6299953,4.634525,4.640689,4.6447825,4.6444836,4.6420636,4.64064,4.6368923,4.6324463,4.6281123,4.6259885,4.6290054,4.6353636,4.644083,4.6508813,4.6207776,4.628046,4.5582423,5.102064,7.7573786,10.496902,11.264135,11.042783,11.104179,11.109356,11.133569,11.154325,11.165487,11.174729,11.177511,11.18551,11.19374,11.212098,11.229714,11.250613,11.263946,11.28034,11.2922735,11.309714,11.32447,11.337161,11.347002,11.357268,11.366695,11.374026,11.379152,11.380483,11.381455,11.382663,11.383049,11.382373,11.381661,11.381327,11.3804035,11.379328,11.37661,11.373694,11.37186,11.368932,11.360096,11.34631,11.330634,11.310342,11.291636,11.264485,11.238893,11.20321,11.174308,11.142997,11.131051,11.089578,11.0456705,10.981941,10.9228325,10.611932,10.056881,8.02742,5.9133344
4.567538,4.575248,4.5820208,4.5869937,4.5905623,4.5939956,4.5972247,4.6003976,4.602126,4.603679,4.6043487,4.605276,4.605994,4.605916,4.6051145,4.6047926,4.6051264,4.6063285,4.608168,4.6108236,4.6140757,4.6183605,4.623321,4.6293845,4.6330514,4.6322436,4.629715,4.6286883,4.6258187,4.6221676,4.6187735,4.6171436,4.621142,4.6283937,4.637655,4.6440396,4.594098,4.5948915,4.646649,5.3188276,7.9438477,10.578285,11.301852,11.06065,11.10651,11.109268,11.141147,11.169402,11.179531,11.187819,11.190934,11.201704,11.213615,11.234771,11.252773,11.274214,11.287628,11.303973,11.315645,11.332776,11.347207,11.359518,11.369031,11.379056,11.388285,11.395467,11.400381,11.401511,11.4022,11.403219,11.403189,11.40211,11.40086,11.400173,11.398943,11.39778,11.394857,11.391771,11.389809,11.386796,11.377771,11.363702,11.347595,11.326914,11.307965,11.280864,11.25551,11.220322,11.191462,11.161966,11.152406,11.115908,11.076474,11.017058,10.960526,10.687447,10.177265,8.162231,6.0284753
4.5583396,4.5648875,4.5704637,4.574324,4.576914,4.5794253,4.5820355,4.5845857,4.5859003,4.5869927,4.5873823,4.587989,4.5885353,4.5881996,4.5871997,4.586181,4.5857306,4.5859795,4.587252,4.5897055,4.593344,4.59856,4.6042128,4.6097174,4.612993,4.6128087,4.611485,4.611303,4.609942,4.607711,4.606031,4.605366,4.6108813,4.6192937,4.6299424,4.6368666,4.564079,4.5596724,4.7779145,5.6168437,8.167122,10.632773,11.312376,11.074435,11.113658,11.117077,11.15265,11.184502,11.194261,11.203008,11.207485,11.221353,11.23639,11.258926,11.275854,11.296963,11.310521,11.326634,11.3379,11.354568,11.368581,11.380421,11.389588,11.399426,11.408586,11.415741,11.4206085,11.421654,11.42224,11.423238,11.422993,11.42162,11.420011,11.419109,11.417775,11.416685,11.41381,11.410776,11.408975,11.40612,11.397196,11.383083,11.366782,11.345844,11.326563,11.299638,11.274875,11.241053,11.213429,11.185986,11.177819,11.1451,11.109469,11.052091,10.996193,10.775502,10.333721,8.377863,6.254182
4.550059,4.555115,4.559381,4.562256,4.5641594,4.566047,4.5681067,4.5700912,4.5710716,4.5717816,4.571923,4.5722632,4.5726857,4.5722017,4.571114,4.5695653,4.568482,4.56813,4.5690975,4.5712123,4.574907,4.5809484,4.5872717,4.591967,4.59506,4.5964847,4.597123,4.597645,4.597372,4.596249,4.5958815,4.5959024,4.602821,4.612511,4.624882,4.6328044,4.541319,4.533537,4.8991604,5.8829927,8.357777,10.666741,11.310301,11.083305,11.123549,11.13023,11.164717,11.19552,11.205355,11.215168,11.22101,11.236703,11.252961,11.276343,11.293234,11.3143015,11.32769,11.343426,11.354273,11.370553,11.384286,11.395777,11.404717,11.414488,11.423696,11.4309225,11.435823,11.436808,11.437341,11.438361,11.438038,11.436514,11.434739,11.433751,11.432467,11.431538,11.428859,11.425994,11.424453,11.421816,11.4130945,11.399079,11.382802,11.361819,11.342425,11.315569,11.291036,11.257744,11.2305,11.20419,11.1971035,11.167126,11.1342325,11.075727,11.017143,10.844128,10.469879,8.596272,6.508001
4.541514,4.544291,4.5464797,4.547589,4.548136,4.5484624,4.549016,4.5492578,4.549076,4.548529,4.5479674,4.5474715,4.547404,4.5464454,4.54518,4.5428934,4.5409794,4.539635,4.5399327,4.5414534,4.544999,4.5512395,4.557902,4.562272,4.5658603,4.5689535,4.5719304,4.5738254,4.5758066,4.5768003,4.578959,4.5804863,4.5885715,4.5983586,4.611928,4.621431,4.5159144,4.5102005,5.026221,6.1535516,8.545443,10.691627,11.303016,11.094173,11.13857,11.149435,11.181886,11.210442,11.219985,11.231871,11.241111,11.259572,11.276247,11.300067,11.31703,11.33803,11.351176,11.366558,11.377062,11.392941,11.406355,11.417497,11.426231,11.435958,11.445251,11.452567,11.457571,11.458596,11.459225,11.460375,11.460114,11.458541,11.456706,11.45568,11.454446,11.453629,11.451144,11.448486,11.447263,11.444922,11.436505,11.422698,11.40659,11.385655,11.366174,11.339288,11.314935,11.2817135,11.254349,11.227615,11.219693,11.191306,11.161548,11.101547,11.039403,10.90515,10.592906,8.849467,6.8512325
4.537022,4.538075,4.538696,4.5382843,4.5375543,4.5361686,4.5350084,4.533179,4.531565,4.529515,4.5281687,4.5267076,4.526041,4.5245094,4.5230412,4.5201836,4.517673,4.515379,4.514897,4.5158753,4.5191507,4.5246997,4.531044,4.535837,4.5403037,4.5438576,4.5480094,4.551278,4.555648,4.5587687,4.563471,4.56663,4.57484,4.5831275,4.5963216,4.6069083,4.498571,4.499245,5.094531,6.2942886,8.64148,10.702758,11.299956,11.103345,11.150113,11.1628475,11.194643,11.222189,11.231013,11.24467,11.257579,11.278601,11.295082,11.318987,11.336101,11.35711,11.370119,11.38541,11.395839,11.411516,11.424706,11.435652,11.44428,11.45397,11.463298,11.470637,11.475729,11.476858,11.477648,11.478932,11.478792,11.477255,11.475428,11.474376,11.473095,11.472242,11.4697895,11.467225,11.466175,11.46403,11.455825,11.442192,11.426261,11.405408,11.385896,11.358922,11.334681,11.301047,11.272984,11.244619,11.23474,11.2064295,11.178845,11.118774,11.055076,10.927855,10.635328,8.997507,7.0952253
4.532968,4.5317755,4.5297136,4.5267572,4.5238624,4.5200095,4.516706,4.512389,4.5090623,4.505099,4.502639,4.4997754,4.498216,4.4958687,4.494144,4.490421,4.487002,4.4835777,4.482345,4.482839,4.4860525,4.491333,4.497872,4.503452,4.5092363,4.513781,4.5195856,4.524381,4.5313272,4.536742,4.5442653,4.5492225,4.55842,4.566246,4.580333,4.5928273,4.485179,4.4932175,5.149441,6.402488,8.710926,10.704393,11.293613,11.111828,11.164102,11.180572,11.21202,11.238355,11.246224,11.262103,11.279751,11.303932,11.319954,11.343656,11.360735,11.381618,11.39448,11.40968,11.420064,11.435544,11.448524,11.459325,11.467908,11.477621,11.487034,11.494419,11.499657,11.500975,11.50205,11.503559,11.5036545,11.5022335,11.500537,11.499553,11.498297,11.497416,11.495008,11.492537,11.491648,11.489673,11.48166,11.468174,11.452383,11.431525,11.411868,11.384617,11.360225,11.32617,11.298058,11.2671385,11.252926,11.223383,11.198635,11.137554,11.070731,10.957949,10.696468,9.1759205,7.374141
4.5310216,4.5284734,4.524235,4.5192347,4.514553,4.5088973,4.5042486,4.4984946,4.494223,4.48911,4.4858794,4.482026,4.479825,4.4769306,4.4750757,4.4706707,4.466506,4.46243,4.46095,4.4613147,4.46473,4.470396,4.4775763,4.4837914,4.4905167,4.49606,4.503065,4.5086145,4.51676,4.5232553,4.5321903,4.5380316,4.5485864,4.5574145,4.5732784,4.58741,4.4826636,4.4942255,5.161694,6.4222126,8.718532,10.696489,11.287451,11.114544,11.172197,11.192157,11.223783,11.249342,11.256432,11.27363,11.294408,11.3206,11.336212,11.359572,11.376441,11.397148,11.409949,11.425109,11.435488,11.450887,11.463793,11.474577,11.483208,11.4929905,11.502495,11.50993,11.515299,11.516783,11.5181,11.519788,11.520096,11.518795,11.51727,11.516408,11.515237,11.514359,11.5119915,11.509564,11.50874,11.506818,11.49887,11.485412,11.469634,11.448674,11.428837,11.401278,11.376555,11.342356,11.31493,11.282146,11.263883,11.2326355,11.209764,11.147261,11.077486,10.979798,10.744634,9.284271,7.5270343
4.5360007,4.5298214,4.52157,4.513306,4.5066814,4.4997096,4.4943166,4.487338,4.4816804,4.474819,4.4705086,4.46524,4.4621115,4.458155,4.455753,4.4507875,4.4463644,4.4416046,4.439548,4.4396367,4.4432716,4.4493933,4.4574304,4.4645624,4.4726486,4.4795732,4.488299,4.4950333,4.5049148,4.5128675,4.5236053,4.530526,4.542555,4.5523415,4.570116,4.586243,4.488463,4.5063806,5.172727,6.426389,8.71397,10.687435,11.283216,11.120068,11.185207,11.21003,11.241385,11.266871,11.2758465,11.295367,11.317525,11.344476,11.35978,11.382762,11.399333,11.419589,11.432057,11.44703,11.457407,11.47266,11.485422,11.496106,11.504719,11.514555,11.524123,11.531526,11.536925,11.538509,11.540032,11.541909,11.542463,11.541323,11.5400305,11.539331,11.538283,11.537413,11.535084,11.5326805,11.531865,11.5299425,11.522024,11.508605,11.492908,11.471921,11.451929,11.424051,11.398981,11.364615,11.33809,11.302599,11.278591,11.24488,11.22459,11.160018,11.086097,11.012662,10.817099,9.430329,7.722031
4.5454383,4.535661,4.524029,4.513219,4.5055118,4.4983754,4.49331,4.486093,4.479442,4.4712763,4.466212,4.4599347,4.456135,4.4512286,4.448189,4.4431243,4.4390965,4.4340467,4.431446,4.4312963,4.435059,4.4414806,4.4501204,4.457918,4.466985,4.474877,4.4848223,4.4924464,4.5035276,4.512413,4.5242395,4.5317707,4.5445714,4.5548086,4.5735693,4.5908685,4.50034,4.5235863,5.1734185,6.406338,8.695206,10.681388,11.283182,11.124923,11.195438,11.223713,11.254574,11.280717,11.293056,11.314488,11.335487,11.361498,11.376751,11.399508,11.415842,11.435633,11.447701,11.462456,11.47284,11.487975,11.500612,11.511175,11.519718,11.529561,11.53912,11.546423,11.551728,11.553284,11.554849,11.556804,11.557494,11.556457,11.55532,11.554738,11.553781,11.552922,11.550607,11.548193,11.547322,11.54534,11.537388,11.523988,11.508374,11.487441,11.467398,11.439366,11.414111,11.379665,11.353779,11.316338,11.288222,11.252685,11.234129,11.168158,11.091502,11.037207,10.870948,9.526223,7.8409314
4.5616484,4.5497704,4.536043,4.522595,4.5115194,4.5023236,4.4982257,4.4914613,4.4835305,4.4736576,4.4676504,4.4600987,4.45544,4.449313,4.445463,4.4406023,4.437488,4.4321585,4.4287014,4.428248,4.4322104,4.438984,4.4483113,4.4568663,4.46706,4.4760656,4.4874487,4.496136,4.5086975,4.5187626,4.531985,4.5403194,4.5540786,4.5648375,4.5845146,4.6028814,4.521815,4.551546,5.1743197,6.374354,8.664011,10.669456,11.28164,11.131957,11.210074,11.242856,11.273391,11.300002,11.315566,11.33898,11.359143,11.384306,11.399299,11.421599,11.437562,11.456795,11.46847,11.483033,11.493465,11.50847,11.520937,11.531342,11.539761,11.549551,11.558985,11.56604,11.571082,11.572509,11.574001,11.5759535,11.57667,11.575656,11.574627,11.574173,11.573316,11.572476,11.570169,11.56773,11.5667925,11.564729,11.55669,11.543223,11.527597,11.506594,11.486394,11.458084,11.432525,11.397934,11.372768,11.333159,11.300399,11.262963,11.246494,11.181396,11.104825,11.070826,10.934475,9.646502,7.9984407
4.578608,4.56692,4.553193,4.5384736,4.524321,4.5128884,4.509656,4.5035195,4.4947433,4.4837427,4.4771404,4.468768,4.4635463,4.456583,4.45216,4.4476643,4.4454894,4.4402156,4.43626,4.4356546,4.4397264,4.4467015,4.4564295,4.4654245,4.476295,4.4859796,4.4982715,4.5076575,4.5211954,4.532041,4.546172,4.555028,4.569327,4.580311,4.6001806,4.6188025,4.544819,4.578809,5.174176,6.342479,8.63385,10.658804,11.280549,11.137717,11.221502,11.257435,11.28797,11.314781,11.332089,11.356506,11.37614,11.400659,11.415329,11.43715,11.452766,11.471565,11.482986,11.49741,11.507855,11.522737,11.535044,11.545292,11.553563,11.563243,11.572472,11.57923,11.583936,11.585164,11.586471,11.58832,11.588922,11.587833,11.586812,11.586443,11.585673,11.584883,11.582612,11.580168,11.5792055,11.577089,11.568978,11.5554285,11.539739,11.518634,11.498297,11.469793,11.444035,11.409371,11.384616,11.343996,11.308929,11.270628,11.255187,11.1924715,11.118648,11.095937,10.974996,9.727534,8.109781
4.602129,4.590228,4.57551,4.5594916,4.544599,4.532425,4.528579,4.5215416,4.5119514,4.4999795,4.4928107,4.483652,4.477886,4.4701266,4.4651604,4.460747,4.4592066,4.45459,4.451063,4.4506006,4.454643,4.4618416,4.471991,4.4814057,4.493039,4.503624,4.5171146,4.527392,4.542051,4.5536957,4.5687737,4.5782104,4.5930033,4.6040936,4.6238427,4.642421,4.5766683,4.615357,5.175126,6.303002,8.598141,10.6490755,11.281356,11.144713,11.23442,11.273797,11.304549,11.33167,11.350668,11.376039,11.39518,11.418945,11.433098,11.454173,11.4692545,11.487343,11.498298,11.512301,11.5225525,11.537096,11.5491,11.559033,11.567027,11.576498,11.585419,11.59177,11.596005,11.596939,11.597949,11.599629,11.60005,11.598847,11.597851,11.597632,11.597091,11.596488,11.594434,11.59212,11.591273,11.589204,11.581147,11.567632,11.551992,11.530894,11.5105,11.481933,11.456125,11.421573,11.397172,11.356349,11.320446,11.281733,11.266399,11.205248,11.133974,11.125577,11.025415,9.834015,8.2589035
4.6270566,4.61549,4.600535,4.584615,4.571301,4.5596247,4.5539465,4.5449314,4.5349026,4.5225506,4.5151186,4.5055904,4.49956,4.4914274,4.4862094,4.481554,4.4800315,4.4763207,4.473878,4.4736447,4.477386,4.484586,4.494929,4.5046353,4.516798,4.5278983,4.542179,4.5531397,4.5687776,4.581222,4.5971045,4.60692,4.621794,4.6326137,4.6516786,4.6696935,4.6088157,4.650191,5.185786,6.2857895,8.580315,10.645395,11.283377,11.15075,11.24439,11.286299,11.317412,11.344676,11.364384,11.39008,11.408955,11.432165,11.445832,11.466221,11.480813,11.498254,11.508775,11.52231,11.532272,11.546407,11.558063,11.567632,11.575309,11.584525,11.593114,11.599064,11.602843,11.603488,11.604199,11.605703,11.605931,11.604605,11.603628,11.6035595,11.603271,11.602893,11.6011095,11.598971,11.5983,11.596335,11.588421,11.575041,11.559556,11.538606,11.518304,11.489882,11.464223,11.429961,11.405756,11.365712,11.330893,11.292355,11.275958,11.215772,11.147069,11.147244,11.059884,9.913133,8.375032
4.6559763,4.6454506,4.632215,4.618338,4.6073165,4.5958614,4.58749,4.575666,4.5650725,4.552368,4.5447555,4.535021,4.528866,4.5206585,4.515455,4.510419,4.5085063,4.505535,4.504153,4.503813,4.506851,4.5137005,4.524103,4.534337,4.547095,4.5581956,4.572853,4.5844874,4.6016784,4.615841,4.6331034,4.643192,4.657401,4.6669936,4.684726,4.702122,4.643697,4.6871457,5.2149606,6.302911,8.586471,10.646164,11.285088,11.157677,11.255251,11.300045,11.331444,11.358646,11.37884,11.404716,11.42334,11.446082,11.459356,11.479185,11.493379,11.510281,11.520437,11.533597,11.5433235,11.557063,11.568341,11.577525,11.584859,11.593797,11.602032,11.607565,11.610902,11.611285,11.611753,11.613128,11.613221,11.611812,11.610882,11.610961,11.610893,11.610693,11.609108,11.60709,11.606532,11.604641,11.596846,11.583616,11.568326,11.547601,11.527482,11.499282,11.473785,11.439839,11.415901,11.376593,11.342718,11.304117,11.286455,11.227742,11.162379,11.166784,11.086346,9.983598,8.486503
4.6913447,4.6822386,4.6712255,4.6595445,4.650253,4.6388373,4.62852,4.614832,4.604123,4.5914106,4.5837107,4.573802,4.567491,4.559045,4.5536475,4.5478764,4.545263,4.542699,4.542202,4.5416713,4.5440226,4.550461,4.5608377,4.5715203,4.584765,4.5957675,4.6106243,4.622756,4.641209,4.6567845,4.675328,4.6858053,4.7001777,4.709608,4.726351,4.742543,4.6833196,4.7268424,5.2585645,6.346521,8.611194,10.650543,11.286337,11.164418,11.2653265,11.312871,11.344537,11.371459,11.391655,11.41737,11.435792,11.458167,11.471134,11.490496,11.504336,11.52081,11.5307,11.5435505,11.55305,11.566373,11.577233,11.586017,11.592999,11.601641,11.609503,11.614595,11.617485,11.617639,11.61789,11.61914,11.619098,11.617601,11.616707,11.616923,11.617027,11.616947,11.615505,11.613576,11.613106,11.611294,11.603656,11.590671,11.5757065,11.555398,11.535651,11.507916,11.482784,11.449389,11.425853,11.387576,11.3550415,11.316253,11.296731,11.239375,11.177582,11.182911,11.103009,10.019936,8.544388
4.725805,4.717982,4.708257,4.6972103,4.6877923,4.6761165,4.6658998,4.652618,4.642473,4.6300426,4.622167,4.6117654,4.6049724,4.5955367,4.5892277,4.5823617,4.579157,4.576671,4.576724,4.576176,4.578264,4.584578,4.5949893,4.6058254,4.619414,4.630774,4.6461153,4.6586113,4.677527,4.6933136,4.7127147,4.72411,4.741081,4.7532988,4.7701793,4.7840176,4.7229342,4.7655096,5.298592,6.3847256,8.631777,10.6532345,11.28655,11.169956,11.274028,11.324119,11.356066,11.382728,11.402891,11.428395,11.446581,11.468557,11.481212,11.500074,11.51353,11.529598,11.539276,11.551845,11.56111,11.574022,11.5844755,11.592891,11.599553,11.60792,11.615414,11.62006,11.622495,11.622417,11.622428,11.623508,11.623263,11.621621,11.620698,11.621023,11.62125,11.621258,11.619941,11.618107,11.617741,11.616036,11.60859,11.595888,11.581289,11.561443,11.542109,11.514915,11.490252,11.457523,11.434463,11.39722,11.365957,11.326823,11.305313,11.248834,11.190052,11.19737,11.117753,10.033099,8.557981
4.77645,4.7692966,4.7592506,4.746963,4.7359986,4.723708,4.7145844,4.7026544,4.69299,4.6807623,4.672797,4.662047,4.6548843,4.6446233,4.6375213,4.6298046,4.6261826,4.6235414,4.623768,4.623238,4.6253266,4.6316786,4.6422086,4.6531773,4.6671114,4.6789947,4.694865,4.7076178,4.726587,4.7421317,4.7617054,4.7735305,4.792191,4.8063846,4.8240776,4.8371067,4.7739234,4.813923,5.346456,6.428849,8.655469,10.656984,11.287352,11.176497,11.283772,11.336399,11.368581,11.394783,11.414625,11.439721,11.457691,11.479334,11.491742,11.510148,11.523212,11.538888,11.548369,11.560655,11.569661,11.582097,11.592078,11.600087,11.606418,11.614492,11.621594,11.625745,11.627702,11.6274185,11.627227,11.628153,11.627746,11.626009,11.625121,11.625598,11.62595,11.626004,11.624778,11.623022,11.622708,11.621093,11.613878,11.601597,11.58758,11.5685005,11.549847,11.523552,11.499669,11.467996,11.445699,11.409829,11.380103,11.340588,11.316753,11.2611475,11.205637,11.216412,11.1362,10.022935,8.52199
4.822698,4.8154254,4.8034487,4.78861,4.7758875,4.763133,4.7551546,4.744263,4.734394,4.721945,4.714019,4.7033043,4.696154,4.6858764,4.678738,4.670945,4.667241,4.664463,4.6645904,4.6640625,4.6662455,4.6726785,4.6833615,4.6945395,4.7088094,4.721068,4.7372994,4.750244,4.76928,4.784819,4.804033,4.8153844,4.832938,4.846012,4.864853,4.8802524,4.8165455,4.8537483,5.3842893,6.46236,8.67344,10.660406,11.288179,11.181292,11.291167,11.3459425,11.378271,11.403999,11.423468,11.448184,11.466034,11.487491,11.499758,11.517859,11.5306425,11.546013,11.555321,11.567371,11.576166,11.588207,11.597796,11.605473,11.611544,11.619396,11.626209,11.629991,11.631622,11.631235,11.630966,11.631838,11.631414,11.629695,11.628943,11.629591,11.630085,11.630181,11.6290455,11.627363,11.627089,11.62554,11.618543,11.60668,11.593254,11.574951,11.556984,11.531567,11.508444,11.477756,11.456171,11.421439,11.392888,11.353055,11.327414,11.27243,11.219387,11.234097,11.153931,10.007108,8.474208
4.890316,4.882022,4.868268,4.851309,4.836713,4.822731,4.8146853,4.803889,4.79381,4.781318,4.7735567,4.7631145,4.756176,4.74618,4.7392273,4.731651,4.7280273,4.7250066,4.724789,4.724232,4.726616,4.7332296,4.7441397,4.7555537,4.77009,4.7826242,4.7989917,4.8119206,4.8306403,4.845861,4.8640995,4.874461,4.889875,4.9009004,4.9194603,4.9361653,4.8720794,4.9064927,5.4281564,6.494401,8.689256,10.665157,11.292708,11.190944,11.302396,11.357842,11.390108,11.415213,11.434005,11.458177,11.475971,11.497431,11.509749,11.527759,11.540369,11.55557,11.564781,11.576689,11.585323,11.597004,11.606222,11.613622,11.619487,11.627159,11.633698,11.6370945,11.638374,11.637875,11.637515,11.638308,11.637868,11.6362,11.635599,11.636407,11.636938,11.636933,11.635694,11.63392,11.633425,11.631735,11.624788,11.613304,11.600508,11.583118,11.565971,11.541645,11.519468,11.490068,11.46945,11.436277,11.40926,11.369578,11.342415,11.288765,11.238865,11.2587595,11.17839,9.984555,8.406558
4.941827,4.932192,4.9182396,4.901199,4.885672,4.8702407,4.860814,4.849133,4.8391886,4.8270216,4.819433,4.8092694,4.802548,4.7928143,4.786012,4.778658,4.7751546,4.7719493,4.7714276,4.770828,4.7733617,4.780142,4.791228,4.802779,4.8173847,4.829955,4.84621,4.8590026,4.877252,4.8919764,4.90929,4.9188943,4.932882,4.942667,4.9594955,4.9749584,4.910354,4.9437227,5.45682,6.5122695,8.697203,10.668603,11.298238,11.200741,11.312006,11.366341,11.398433,11.423111,11.441231,11.464932,11.482762,11.504404,11.516935,11.535105,11.547734,11.5630045,11.572267,11.584214,11.592833,11.604387,11.613448,11.620771,11.626591,11.63421,11.6406145,11.643793,11.644855,11.64428,11.643842,11.644552,11.644079,11.642445,11.641897,11.642756,11.643173,11.6429615,11.641453,11.639448,11.638566,11.636585,11.629472,11.618107,11.605619,11.588778,11.572128,11.548505,11.526947,11.498435,11.478503,11.446494,11.420582,11.381441,11.353811,11.30155,11.253909,11.277327,11.19663,9.970436,8.361381
5.0194407,5.00888,4.9950366,4.9781165,4.9620423,4.944958,4.9332314,4.919595,4.909255,4.897192,4.8899536,4.8802853,4.8738933,4.864586,4.8580503,4.851056,4.847716,4.8440957,4.8429565,4.842229,4.845006,4.852053,4.8633895,4.8750677,4.8896646,4.9022536,4.9181504,4.930366,4.947758,4.9619656,4.978091,4.9865675,4.998536,5.0066276,5.0208564,5.0343084,4.970265,5.0021386,5.4901705,6.517774,8.695357,10.673699,11.307987,11.21419,11.32493,11.37745,11.408979,11.43311,11.4508095,11.474211,11.491997,11.513761,11.526508,11.544793,11.557382,11.572614,11.581833,11.593706,11.602218,11.613529,11.622353,11.629545,11.635294,11.642851,11.649091,11.651983,11.652739,11.652031,11.651439,11.652006,11.651462,11.649864,11.64941,11.650369,11.650721,11.650322,11.648581,11.646367,11.645081,11.642777,11.635505,11.6243105,11.612218,11.596053,11.580019,11.557287,11.536513,11.509196,11.490215,11.459873,11.435578,11.397267,11.369015,11.318798,11.274422,11.302135,11.220503,9.9529505,8.304741
5.077189,5.0667453,5.053361,5.036694,5.0206084,5.0024705,4.9888706,4.973377,4.962331,4.950129,4.943294,4.9341087,4.9279675,4.919002,4.9126906,4.9059687,4.902717,4.8986325,4.896862,4.895953,4.8989263,4.9062343,4.9178104,4.929544,4.944063,4.956661,4.9721894,4.9837394,5.0004168,5.014423,5.0298257,5.037476,5.048026,5.054954,5.0673714,5.079399,5.0166106,5.047335,5.5093365,6.5091724,8.685678,10.677282,11.315884,11.223258,11.333607,11.384832,11.415778,11.43956,11.457307,11.480725,11.498408,11.520143,11.532965,11.551224,11.563712,11.578796,11.587893,11.599601,11.607966,11.619046,11.627673,11.634739,11.640423,11.647938,11.654063,11.656757,11.657284,11.656456,11.655723,11.656173,11.65556,11.653977,11.653603,11.654658,11.655038,11.654592,11.652803,11.650535,11.649076,11.646623,11.639306,11.628255,11.616429,11.600696,11.58505,11.56289,11.542625,11.516123,11.497806,11.468665,11.445555,11.407844,11.379122,11.330384,11.28838,11.31857,11.235822,9.941988,8.269419
5.1653285,5.15438,5.1378884,5.119227,5.1056023,5.089722,5.0751657,5.0577826,5.045579,5.0319753,5.024174,5.0144615,5.0085435,4.9998384,4.993727,4.9874163,4.9845595,4.9809093,4.9794436,4.979093,4.982292,4.9889135,4.9997606,5.011771,5.0266747,5.039288,5.0541573,5.064628,5.0801773,5.093881,5.1082377,5.114689,5.12328,5.128669,5.1384015,5.148154,5.088051,5.117136,5.532733,6.484059,8.664525,10.684838,11.329506,11.235325,11.344569,11.393732,11.423408,11.446737,11.465178,11.4891405,11.506677,11.528406,11.541389,11.559754,11.572234,11.587244,11.596223,11.607759,11.615956,11.626782,11.635206,11.642159,11.647811,11.655323,11.661369,11.663868,11.664159,11.663204,11.662313,11.66262,11.661941,11.660403,11.660167,11.661371,11.661835,11.661364,11.659555,11.65724,11.655596,11.652964,11.645586,11.634682,11.623153,11.60792,11.592737,11.571276,11.551607,11.526145,11.50873,11.481286,11.4599,11.422921,11.393301,11.346554,11.308021,11.343466,11.261129,9.929432,8.220273
5.2328568,5.22124,5.20039,5.1790085,5.1686797,5.1567683,5.142728,5.1245847,5.1114717,5.096109,5.0866475,5.07578,5.0699196,5.0612497,5.055212,5.0492134,5.046807,5.0441737,5.0436997,5.0442605,5.0475755,5.0530853,5.062717,5.0748677,5.0901732,5.1027584,5.11709,5.126755,5.1414156,5.1548047,5.1683297,5.1739035,5.181134,5.1855025,5.1932235,5.2011585,5.1436706,5.171577,5.546746,6.456408,8.64389,10.692266,11.34118,11.2433815,11.35141,11.398931,11.427359,11.450393,11.469791,11.494524,11.511951,11.5336895,11.546821,11.565351,11.577918,11.59296,11.601887,11.6133375,11.621433,11.632127,11.640457,11.647373,11.653043,11.660597,11.666645,11.66907,11.669257,11.668243,11.667268,11.667492,11.666789,11.6652975,11.665176,11.666499,11.66706,11.666611,11.664834,11.6625185,11.660791,11.658067,11.650649,11.639815,11.62843,11.6134615,11.598539,11.577479,11.558134,11.533321,11.516513,11.490261,11.47012,11.433618,11.403274,11.357865,11.321808,11.362142,11.281539,9.923226,8.187391
5.3225904,5.3117785,5.2929006,5.273496,5.2632856,5.251467,5.238422,5.221118,5.2081327,5.192422,5.1823673,5.1710067,5.1650486,5.1564913,5.1507316,5.1451607,5.1431375,5.141039,5.14096,5.141833,5.1452374,5.151342,5.160267,5.169071,5.181105,5.1931224,5.207743,5.2179832,5.2317986,5.2430563,5.25428,5.258942,5.2644267,5.2672925,5.2722077,5.2776685,5.2236085,5.2498817,5.570963,6.424776,8.621295,10.706353,11.359234,11.255056,11.361109,11.406376,11.432809,11.455216,11.475913,11.501698,11.518959,11.540686,11.554002,11.572744,11.585435,11.600511,11.609355,11.62066,11.628593,11.63909,11.647282,11.65413,11.659814,11.667423,11.6734915,11.675842,11.6759205,11.674846,11.673783,11.67392,11.673197,11.671763,11.671794,11.673278,11.673995,11.673612,11.671901,11.669593,11.667771,11.66493,11.65747,11.646706,11.635452,11.6207485,11.6061,11.585495,11.566519,11.542476,11.5263815,11.501582,11.482894,11.447582,11.417336,11.373692,11.339947,11.386657,11.30939,9.920442,8.154211
5.3940377,5.384845,5.3717785,5.3570333,5.344794,5.33051,5.3187194,5.3030863,5.290529,5.275356,5.2658052,5.2547016,5.2485785,5.240133,5.234659,5.229345,5.227415,5.225263,5.2250023,5.225562,5.2288976,5.236407,5.2452607,5.249944,5.257659,5.2687745,5.2837505,5.2949567,5.3080306,5.316756,5.3253684,5.3291054,5.3330793,5.3347864,5.337545,5.341124,5.2894483,5.31442,5.595996,6.408745,8.6106615,10.720768,11.374597,11.264294,11.368476,11.412119,11.437066,11.4589815,11.480538,11.507012,11.524138,11.545828,11.559252,11.578138,11.590925,11.606029,11.614807,11.62599,11.633788,11.644122,11.652202,11.658982,11.664673,11.672334,11.67845,11.680783,11.680824,11.679733,11.678646,11.67875,11.678028,11.676625,11.676766,11.678371,11.679247,11.678971,11.677371,11.675103,11.673273,11.670389,11.662935,11.652217,11.641019,11.626433,11.611932,11.591586,11.572822,11.549257,11.533611,11.509749,11.491935,11.457896,11.428554,11.386086,11.353138,11.404226,11.330309,9.925007,8.142866
5.4983306,5.490273,5.48013,5.4681134,5.4564366,5.4425783,5.432617,5.4166594,5.400817,5.383437,5.3745446,5.3645144,5.359187,5.351356,5.345963,5.3406487,5.33859,5.336452,5.3362074,5.336478,5.3394213,5.3468084,5.355288,5.3591294,5.36542,5.375262,5.3882666,5.397705,5.40834,5.4154344,5.4209137,5.421718,5.42268,5.423107,5.4232554,5.424541,5.3749886,5.3981524,5.637277,6.4049897,8.607745,10.739546,11.392676,11.2759075,11.377666,11.419821,11.444194,11.466052,11.487819,11.514387,11.531347,11.552918,11.566353,11.58526,11.598071,11.613115,11.621782,11.632775,11.640375,11.650436,11.658297,11.664906,11.670545,11.678257,11.684441,11.686747,11.686757,11.685674,11.684603,11.684717,11.684017,11.682621,11.682892,11.684672,11.68583,11.685791,11.684458,11.682346,11.680666,11.677871,11.670552,11.659981,11.64893,11.634566,11.620315,11.600351,11.5818815,11.558929,11.543869,11.521075,11.504151,11.471691,11.4437,11.40236,11.36972,11.424351,11.353749,9.938349,8.147492
5.600524,5.5932784,5.5840206,5.5732007,5.5634108,5.551461,5.542937,5.5264707,5.508082,5.488727,5.4800067,5.469913,5.464245,5.4563007,5.451066,5.445569,5.4431734,5.440927,5.440681,5.4406238,5.443004,5.449303,5.457299,5.462603,5.4695187,5.477783,5.4875793,5.494116,5.5019097,5.50821,5.5107546,5.507869,5.5055265,5.505001,5.5031486,5.5027246,5.4537435,5.475246,5.6902165,6.430446,8.62427,10.758273,11.406941,11.285835,11.385214,11.426494,11.451258,11.473433,11.494699,11.520776,11.537613,11.559087,11.5724945,11.591398,11.604234,11.619262,11.627882,11.638785,11.646274,11.656146,11.6638365,11.670311,11.67593,11.683738,11.690044,11.6923685,11.692402,11.691361,11.690348,11.690502,11.689807,11.688363,11.688683,11.6905775,11.691985,11.692191,11.691126,11.689183,11.687709,11.685064,11.677925,11.667509,11.6565895,11.642404,11.6283655,11.608722,11.590496,11.568024,11.553428,11.531388,11.515002,11.483856,11.457238,11.416515,11.383464,11.439699,11.371487,9.955497,8.1660595
5.712673,5.7066984,5.699099,5.690088,5.6818447,5.671351,5.663282,5.6490197,5.634665,5.617029,5.606634,5.5915995,5.5805125,5.5696807,5.5655975,5.5603604,5.5578413,5.555837,5.5560093,5.5565314,5.5591497,5.564819,5.5720687,5.5779433,5.58435,5.5901937,5.5967455,5.6014166,5.6068964,5.6117625,5.6108637,5.6043215,5.59861,5.597014,5.5931697,5.591149,5.5417857,5.561481,5.7609086,6.481072,8.657231,10.7799,11.420844,11.296314,11.392862,11.433097,11.4581785,11.480641,11.501367,11.526961,11.543721,11.56524,11.5787735,11.597896,11.610915,11.626126,11.634826,11.645816,11.653325,11.6631565,11.670786,11.677241,11.682937,11.690941,11.697449,11.6998415,11.699913,11.6989155,11.6979265,11.698092,11.697327,11.695764,11.696024,11.69795,11.6995,11.699874,11.698966,11.6971035,11.69574,11.693186,11.686167,11.675865,11.665026,11.650976,11.63713,11.617805,11.599838,11.577878,11.563771,11.542556,11.526802,11.49693,11.4715185,11.4314375,11.398168,11.456762,11.391216,9.968817,8.175214
5.832513,5.8280325,5.8221474,5.814916,5.8081045,5.7989817,5.791193,5.7797446,5.770671,5.756034,5.744314,5.725637,5.7107267,5.6976147,5.6939945,5.6883726,5.6851997,5.682316,5.6816006,5.680556,5.681663,5.685978,5.692487,5.698655,5.704485,5.7080426,5.7117143,5.714939,5.718363,5.721691,5.717282,5.7071066,5.6981816,5.6957064,5.6904163,5.6873746,5.6366286,5.6546702,5.852511,6.5650854,8.71251,10.805094,11.433743,11.306987,11.400411,11.43971,11.465102,11.487789,11.507829,11.532828,11.549505,11.571081,11.584764,11.604152,11.617408,11.632914,11.641812,11.653051,11.660725,11.670697,11.678429,11.685035,11.690954,11.699277,11.706104,11.7086735,11.708881,11.707978,11.707052,11.707247,11.706402,11.70469,11.7048235,11.706721,11.708332,11.708822,11.707989,11.706143,11.704823,11.702309,11.69535,11.685101,11.674268,11.660279,11.646561,11.627492,11.609751,11.588217,11.574505,11.553916,11.538625,11.509669,11.485112,11.445458,11.411999,11.472123,11.408732,9.984766,8.192714
5.9452696,5.9422345,5.938039,5.932508,5.927,5.9192085,5.9124985,5.902203,5.893709,5.8803825,5.869834,5.8545327,5.843408,5.8318443,5.826727,5.8194346,5.8147073,5.809082,5.8051686,5.7980556,5.793985,5.796241,5.8030744,5.80963,5.8152714,5.817426,5.8189454,5.8207097,5.8221,5.8240747,5.8165054,5.803,5.7912593,5.788155,5.781806,5.7780333,5.7259903,5.7426567,5.941693,6.6496177,8.768783,10.830193,11.445926,11.316565,11.406985,11.445522,11.471092,11.493937,11.513421,11.53791,11.554473,11.576024,11.589771,11.609311,11.6227255,11.638475,11.647576,11.659068,11.66693,11.677112,11.685028,11.691877,11.698102,11.706798,11.714015,11.716846,11.7173,11.716567,11.7158,11.716087,11.71526,11.713472,11.713555,11.715453,11.71715,11.717759,11.717004,11.715167,11.713857,11.71134,11.704395,11.694158,11.683296,11.6693325,11.655706,11.636841,11.619292,11.598088,11.584666,11.564489,11.549475,11.521099,11.4971,11.45778,11.424281,11.484983,11.423123,10.004574,8.221334
6.083505,6.0819902,6.0795712,6.075611,6.070971,6.064149,6.058703,6.0493,6.040507,6.0278783,6.018572,6.0071144,6.000376,5.9906273,5.9838204,5.9747467,5.968418,5.9598,5.9526396,5.940776,5.9325495,5.9313865,5.936386,5.942156,5.94741,5.948917,5.949064,5.949336,5.948602,5.949276,5.938465,5.921427,5.906863,5.903316,5.89648,5.8925977,5.839114,5.854517,6.0617623,6.7696433,8.848106,10.861991,11.460729,11.330067,11.417166,11.454772,11.480125,11.502762,11.521571,11.545406,11.56174,11.583136,11.596882,11.616507,11.63006,11.64607,11.655425,11.667236,11.675349,11.685816,11.693988,11.70116,11.707752,11.716859,11.724482,11.727591,11.728278,11.727686,11.727017,11.727346,11.726446,11.724517,11.724457,11.72629,11.728015,11.728728,11.728031,11.726203,11.72491,11.722402,11.71547,11.705222,11.694289,11.680296,11.666726,11.648019,11.630629,11.609699,11.59653,11.576689,11.561885,11.533925,11.510319,11.471149,11.437522,11.497938,11.437377,10.031066,8.264975
6.195965,6.1955657,6.1944427,6.1914916,6.187139,6.1807876,6.17627,6.1679497,6.1598754,6.1474395,6.137682,6.1257544,6.1188397,6.108744,6.1016293,6.091967,6.085059,6.0752316,6.0672135,6.0565104,6.0490055,6.0443707,6.044939,6.048811,6.0534477,6.054995,6.054741,6.053892,6.05157,6.0515394,6.0376134,6.016455,5.9998326,5.997501,5.9913006,5.987416,5.9328804,5.9474106,6.1630545,6.8721113,8.914953,10.887104,11.472328,11.342034,11.4267235,11.463545,11.488589,11.510914,11.529168,11.552452,11.568561,11.589789,11.603515,11.623179,11.6368265,11.653029,11.662581,11.674642,11.682944,11.693608,11.70194,11.709324,11.71615,11.72552,11.733381,11.736638,11.737411,11.73685,11.736153,11.736437,11.735379,11.733269,11.733012,11.734747,11.736452,11.737238,11.736583,11.734769,11.733519,11.731049,11.724139,11.713875,11.702868,11.688822,11.675273,11.656664,11.639361,11.618642,11.605691,11.586163,11.571567,11.543975,11.52069,11.481609,11.447828,11.507942,11.448368,10.05161,8.299217
6.346959,6.3471546,6.3471613,6.344866,6.339971,6.333157,6.329056,6.321454,6.313939,6.3017597,6.291862,6.279183,6.2713337,6.260548,6.253351,6.243257,6.2358675,6.225132,6.216537,6.207058,6.200232,6.192337,6.1886077,6.1903343,6.1941586,6.195896,6.195512,6.193681,6.1898775,6.188602,6.1745167,6.1547737,6.136098,6.129441,6.1217804,6.119595,6.064421,6.078197,6.307613,7.0199447,9.0118065,10.923748,11.490557,11.361925,11.443713,11.479244,11.50304,11.524191,11.541639,11.564121,11.579803,11.600662,11.614278,11.633904,11.647618,11.664,11.67376,11.686095,11.694629,11.705551,11.714102,11.721759,11.728847,11.738476,11.7465315,11.749894,11.750667,11.750052,11.749182,11.749299,11.747933,11.745552,11.744971,11.746518,11.748095,11.74889,11.7482395,11.746458,11.745284,11.742903,11.736082,11.725856,11.714807,11.700713,11.687185,11.668638,11.65138,11.630756,11.6179085,11.598517,11.584007,11.556537,11.533358,11.493891,11.459516,11.518131,11.459431,10.081246,8.353748
6.45745,6.4563756,6.456763,6.454768,6.448466,6.4407754,6.437629,6.4310107,6.4234257,6.4114537,6.4021373,6.389594,6.3813205,6.370278,6.3630943,6.352735,6.3449774,6.3337936,6.3247714,6.314617,6.3070035,6.2980456,6.293271,6.2940807,6.297377,6.2991924,6.2987685,6.2965126,6.291945,6.2892604,6.278431,6.2658706,6.2460237,6.2305145,6.219288,6.2196093,6.1644588,6.177913,6.418611,7.134138,9.087219,10.953059,11.506025,11.378911,11.458663,11.493074,11.515433,11.535254,11.552057,11.573904,11.589206,11.609723,11.623232,11.642793,11.656535,11.673003,11.682881,11.695383,11.704069,11.7151785,11.723898,11.7317505,11.73901,11.748783,11.756924,11.76032,11.761036,11.760335,11.759272,11.759204,11.75756,11.754972,11.75412,11.755497,11.75691,11.757651,11.75697,11.755219,11.754119,11.751836,11.745137,11.7350025,11.723995,11.709915,11.6964245,11.677899,11.660644,11.639981,11.627086,11.607605,11.593032,11.56542,11.542128,11.50206,11.466998,11.52402,11.465777,10.103324,8.396531
6.6201653,6.6250863,6.6264596,6.623194,6.6180096,6.607746,6.596946,6.584513,6.5777683,6.5674715,6.5589585,6.5465693,6.5376897,6.526012,6.518488,6.5078216,6.4999204,6.4882417,6.47858,6.467607,6.45893,6.448142,6.441553,6.441155,6.443799,6.4454536,6.44492,6.4423823,6.437345,6.4336123,6.425756,6.419467,6.3985,6.375106,6.3615065,6.365128,6.3102746,6.3233333,6.5796657,7.2989306,9.195549,10.99495,11.528566,11.404409,11.481584,11.514393,11.534396,11.552058,11.567995,11.588961,11.603667,11.623566,11.636782,11.6561,11.669815,11.686343,11.696367,11.709073,11.717964,11.729357,11.738347,11.746509,11.754009,11.763948,11.772157,11.775582,11.77621,11.775384,11.774044,11.773712,11.771707,11.768873,11.767706,11.768886,11.770109,11.770788,11.770071,11.7683525,11.767313,11.765101,11.758484,11.748378,11.737319,11.723151,11.709629,11.691046,11.67372,11.652911,11.639874,11.620148,11.60539,11.577386,11.553754,11.512595,11.476399,11.529655,11.471529,10.143451,8.479052
6.739992,6.755773,6.7583504,6.7528667,6.751011,6.737806,6.71416,6.6918826,6.6868877,6.679192,6.6712127,6.658857,6.6495066,6.6371427,6.629094,6.618234,6.6104846,6.5984674,6.5882483,6.576836,6.567499,6.5550647,6.546797,6.545543,6.5477815,6.5491533,6.548504,6.5459495,6.5409536,6.5371575,6.529969,6.5248904,6.5034547,6.4781637,6.4649363,6.4706197,6.4160347,6.428831,6.696578,7.4185348,9.273846,11.024801,11.544693,11.42316,11.498681,11.530369,11.548547,11.5645485,11.579913,11.600271,11.614532,11.633912,11.646823,11.6658745,11.679525,11.696056,11.706176,11.719008,11.728041,11.73965,11.748861,11.757273,11.764957,11.774997,11.783232,11.786676,11.78725,11.7863455,11.784826,11.784312,11.7820835,11.779119,11.777789,11.778869,11.78,11.780653,11.779925,11.778226,11.777202,11.774995,11.768369,11.758212,11.747039,11.732738,11.719137,11.700459,11.683044,11.662081,11.648913,11.628951,11.614014,11.585624,11.561643,11.519583,11.482502,11.53209,11.4737015,10.178306,8.5528755
6.9135156,6.9278083,6.9296284,6.9234896,6.9220715,6.908602,6.8841004,6.8581963,6.8479695,6.8365707,6.829005,6.8171053,6.8078847,6.795199,6.786595,6.775604,6.768143,6.756496,6.74647,6.7350082,6.7247486,6.70965,6.698739,6.6967373,6.698812,6.6995196,6.6984897,6.696067,6.6914344,6.6878233,6.681601,6.6779213,6.656008,6.6286025,6.616234,6.6247907,6.5717926,6.584223,6.8576603,7.5730624,9.374343,11.067025,11.570237,11.45225,11.525762,11.555646,11.570831,11.584072,11.598551,11.617948,11.631459,11.64998,11.662414,11.681031,11.694571,11.711069,11.721302,11.734296,11.743505,11.755354,11.764778,11.773398,11.78119,11.7912445,11.799376,11.8027115,11.803046,11.801907,11.799996,11.799155,11.79648,11.793214,11.791505,11.7923565,11.793249,11.793801,11.792954,11.791199,11.790128,11.787889,11.781193,11.770892,11.759468,11.744878,11.7310915,11.712176,11.694536,11.673225,11.659771,11.639386,11.624161,11.595198,11.570733,11.5272455,11.4887085,11.533061,11.474454,10.225355,8.655679
7.0394635,7.0420074,7.041677,7.0366297,7.0327964,7.0216875,7.0077586,6.985884,6.9668956,6.9480276,6.940505,6.9291773,6.9205685,6.9080806,6.8992105,6.888242,6.8810625,6.8702645,6.861052,6.849987,6.839178,6.8222017,6.8093925,6.80707,6.809127,6.809108,6.8076468,6.805458,6.801353,6.7981358,6.792529,6.7893996,6.767315,6.739089,6.7277145,6.738253,6.6872554,6.699428,6.969353,7.6725497,9.438351,11.0968,11.590168,11.474709,11.547044,11.575498,11.588284,11.599294,11.613101,11.63175,11.644649,11.662472,11.674527,11.692795,11.706239,11.722692,11.732989,11.746086,11.755411,11.767397,11.776914,11.785594,11.793361,11.803345,11.81131,11.814484,11.814543,11.813153,11.810877,11.809759,11.80669,11.803133,11.801064,11.8017,11.802356,11.8027935,11.801791,11.799936,11.798781,11.796488,11.789691,11.779235,11.767563,11.752686,11.7387085,11.719549,11.701669,11.680011,11.666276,11.645513,11.630042,11.600627,11.575801,11.531176,11.49146,11.531842,11.472997,10.257444,8.728668
7.2017255,7.200145,7.1984744,7.1934323,7.187807,7.178028,7.171092,7.1509156,7.124234,7.09945,7.0927715,7.082197,7.073622,7.0611167,7.052192,7.041437,7.0346494,7.0246005,7.0161896,7.006037,6.9960837,6.9808655,6.968382,6.9634786,6.962127,6.960313,6.958178,6.9564104,6.9532146,6.9505777,6.946018,6.9439487,6.921435,6.8914986,6.88138,6.894971,6.84682,6.8583717,7.1223187,7.8073087,9.522841,11.133646,11.614366,11.503609,11.574335,11.600854,11.610928,11.619427,11.632414,11.650156,11.662335,11.679346,11.690963,11.708856,11.722233,11.7387,11.749139,11.762465,11.7720375,11.784349,11.794138,11.803061,11.810953,11.821,11.828912,11.832007,11.831851,11.830231,11.8276,11.826212,11.82274,11.818879,11.816431,11.816842,11.817258,11.817585,11.816402,11.814419,11.813156,11.810788,11.803858,11.793191,11.781184,11.765926,11.7516985,11.732206,11.714004,11.691829,11.677649,11.656241,11.640332,11.610094,11.584588,11.538411,11.497204,11.5305395,11.46907,10.2961645,8.82243
7.31914,7.320088,7.3181963,7.312503,7.3061385,7.296451,7.2911816,7.271312,7.2426066,7.2159867,7.2090855,7.198216,7.189394,7.1768336,7.168086,7.1575913,7.151077,7.1414833,7.1336713,7.124447,7.1160808,7.1049333,7.094679,7.0867763,7.0809717,7.077281,7.074571,7.073278,7.071029,7.0689797,7.0653377,7.06408,7.0415196,7.01068,7.0012608,7.0164886,6.970609,6.9817686,7.237706,7.9050765,9.582236,11.158769,11.630958,11.524441,11.593937,11.619019,11.627538,11.634605,11.647052,11.664181,11.675886,11.692357,11.703677,11.721338,11.734696,11.751219,11.761792,11.775345,11.785168,11.797819,11.807911,11.817114,11.825201,11.835392,11.843376,11.846508,11.846292,11.844566,11.841759,11.840244,11.836564,11.832538,11.8298855,11.830175,11.830476,11.830759,11.829465,11.827378,11.826018,11.823569,11.816515,11.805658,11.793362,11.77778,11.763339,11.7435665,11.725107,11.702491,11.687914,11.665913,11.649584,11.618558,11.592387,11.545051,11.502849,11.529439,11.464122,10.322229,8.890967
7.4701777,7.4708934,7.4685903,7.4624863,7.455524,7.4455504,7.4398775,7.42223,7.3988714,7.372342,7.3588734,7.3435135,7.335255,7.3229117,7.3141804,7.303693,7.297294,7.288566,7.2818394,7.273123,7.2655315,7.2577844,7.2497945,7.2400393,7.230929,7.2253313,7.2219725,7.221448,7.2205915,7.219446,7.216982,7.216478,7.195157,7.1653237,7.1556516,7.1696415,7.1261525,7.137937,7.3801546,8.021497,9.652638,11.1901865,11.651821,11.549527,11.6172085,11.640666,11.647847,11.653672,11.6655035,11.681858,11.692971,11.708737,11.719645,11.736963,11.750271,11.766828,11.777556,11.791378,11.801509,11.814595,11.825088,11.834664,11.843016,11.853403,11.861505,11.864731,11.8644905,11.86265,11.859655,11.858013,11.854133,11.84995,11.8471155,11.847309,11.847561,11.847866,11.846502,11.844304,11.842808,11.840206,11.832922,11.821738,11.808971,11.792877,11.778081,11.757906,11.739107,11.715957,11.700913,11.678202,11.661369,11.629359,11.6023245,11.553758,11.5106325,11.528414,11.457871,10.357671,8.982892
7.5985875,7.5984683,7.5959997,7.5897427,7.582693,7.5721607,7.5641437,7.548979,7.534617,7.5100937,7.488357,7.467407,7.459998,7.448065,7.4394016,7.428876,7.422472,7.414497,7.4087324,7.4003115,7.39307,7.387443,7.381171,7.371011,7.3605075,7.353721,7.350018,7.350302,7.3508086,7.350597,7.3491673,7.3490357,7.3301616,7.303453,7.2926335,7.302407,7.2601542,7.273183,7.500882,8.117005,9.709869,11.216632,11.669484,11.570298,11.636262,11.658493,11.665083,11.670367,11.68176,11.697507,11.708154,11.723346,11.7339,11.750907,11.764138,11.78069,11.791529,11.805546,11.815913,11.829351,11.8401785,11.850069,11.858649,11.869207,11.877426,11.880771,11.880558,11.878643,11.875532,11.873819,11.869833,11.86556,11.862627,11.862768,11.863025,11.863381,11.86198,11.859678,11.858042,11.85527,11.847754,11.836257,11.823055,11.806496,11.79138,11.770862,11.751791,11.728199,11.712759,11.68943,11.672153,11.639252,11.61141,11.561937,11.518263,11.527714,11.451712,10.38856,9.0645685
7.7360063,7.735497,7.7329035,7.7265687,7.7194133,7.7086487,7.6995387,7.6861544,7.6774335,7.6533833,7.6251173,7.6006045,7.5950785,7.5843453,7.5758114,7.565481,7.559196,7.5516644,7.5464997,7.538938,7.5326977,7.528872,7.5234447,7.512031,7.4995046,7.491367,7.4875126,7.4889073,7.4911914,7.492088,7.4923196,7.4932647,7.4781985,7.455858,7.4437637,7.4480195,7.4063373,7.420455,7.632926,8.22243,9.773591,11.246373,11.68942,11.593497,11.657629,11.678543,11.684352,11.688938,11.699874,11.71501,11.725189,11.739818,11.75004,11.766737,11.779878,11.7964115,11.80735,11.821534,11.832106,11.84584,11.856947,11.867094,11.875853,11.886535,11.894837,11.898282,11.898063,11.896029,11.892738,11.890919,11.886728,11.88226,11.879175,11.879296,11.879571,11.879972,11.878475,11.876,11.8741865,11.871251,11.863511,11.851728,11.838122,11.821142,11.805766,11.784948,11.76562,11.741558,11.725677,11.701663,11.683903,11.65002,11.621294,11.5707445,11.526356,11.526537,11.444404,10.421149,9.152256
7.870072,7.869621,7.867167,7.861021,7.854015,7.843348,7.8339057,7.8213835,7.8147855,7.792249,7.763869,7.7383285,7.7314324,7.7203445,7.7126083,7.702833,7.6967654,7.6895494,7.6847863,7.6783433,7.673347,7.670388,7.665772,7.655603,7.6441684,7.6363783,7.6328983,7.6347623,7.637884,7.639646,7.6401763,7.6402636,7.628574,7.611939,7.5982966,7.595625,7.553278,7.568451,7.7696724,8.336404,9.843109,11.277076,11.709621,11.617776,11.680109,11.6998,11.70499,11.709058,11.719615,11.734208,11.743946,11.758021,11.7679,11.784221,11.797186,11.813588,11.824539,11.838775,11.849458,11.863381,11.874681,11.885007,11.893871,11.904595,11.912901,11.916378,11.916138,11.914024,11.91063,11.908759,11.904508,11.900015,11.896748,11.896643,11.896684,11.896965,11.895275,11.89265,11.890653,11.887572,11.879667,11.8677025,11.853828,11.83658,11.82106,11.8000555,11.780564,11.756103,11.739799,11.715093,11.69682,11.661936,11.632321,11.580775,11.535772,11.526232,11.437382,10.454203,9.24125
7.991515,7.991364,7.9892077,7.983385,7.976653,7.966245,7.9569163,7.944564,7.93726,7.9186125,7.8981776,7.8724985,7.8567634,7.8416543,7.836364,7.828271,7.823049,7.816535,7.812129,7.8066626,7.802739,7.799986,7.797142,7.792253,7.7863846,7.7810903,7.778297,7.7795744,7.781544,7.7828646,7.7810183,7.777621,7.7670746,7.755623,7.740629,7.731907,7.6885834,7.704612,7.899365,8.448867,9.912241,11.30606,11.728344,11.640987,11.701656,11.720228,11.724933,11.728631,11.73892,11.7530775,11.762463,11.775828,11.785036,11.800971,11.814045,11.830387,11.841234,11.855453,11.866219,11.880337,11.891806,11.902164,11.91089,11.921347,11.929381,11.932742,11.932473,11.930376,11.927089,11.925324,11.921363,11.917236,11.913799,11.913084,11.91281,11.913176,11.9114065,11.908651,11.906507,11.903314,11.895319,11.883277,11.869273,11.851902,11.836326,11.81523,11.795667,11.770905,11.754239,11.7288885,11.710105,11.6742735,11.643842,11.591457,11.545998,11.527463,11.432296,10.486059,9.324741
8.132105,8.132671,8.131077,8.125831,8.119611,8.10974,8.100906,8.088608,8.079723,8.064905,8.053056,8.030648,8.010474,7.9927926,7.98777,7.978952,7.972917,7.966533,7.9630547,7.9586873,7.9558706,7.9534535,7.9525,7.952812,7.9526887,7.9506025,7.9489346,7.9490213,7.9504304,7.953501,7.9495573,7.9404526,7.930486,7.9256344,7.908849,7.8923903,7.846839,7.8639097,8.058048,8.593852,10.001379,11.339679,11.749234,11.669151,11.728131,11.745528,11.749829,11.753177,11.763111,11.776621,11.785362,11.798302,11.807604,11.822897,11.835026,11.850726,11.861497,11.875565,11.886295,11.90038,11.911957,11.922627,11.931786,11.942661,11.950986,11.954403,11.954097,11.95198,11.948648,11.946827,11.942925,11.938998,11.935324,11.934085,11.932575,11.931739,11.92932,11.926665,11.924371,11.921046,11.912971,11.900888,11.88681,11.869366,11.853755,11.832586,11.81298,11.787912,11.770851,11.744782,11.725422,11.688562,11.65727,11.604071,11.558206,11.52897,11.426101,10.5230665,9.42253
8.244395,8.245879,8.244842,8.240091,8.234341,8.22494,8.216458,8.204415,8.195266,8.181476,8.171061,8.154174,8.1407585,8.124667,8.115377,8.101155,8.091294,8.084867,8.084342,8.0813,8.079011,8.07744,8.07739,8.0786,8.079693,8.079156,8.078367,8.077349,8.080283,8.088221,8.0848055,8.07045,8.061288,8.062862,8.044139,8.019829,7.9707975,7.988363,8.18629,8.715717,10.076704,11.366437,11.765357,11.691874,11.749628,11.766134,11.770117,11.773115,11.782747,11.795307,11.802761,11.815583,11.826154,11.841106,11.851639,11.86643,11.877217,11.89111,11.901741,11.915631,11.927243,11.938294,11.948352,11.960606,11.970165,11.973988,11.973719,11.971555,11.967972,11.965881,11.961601,11.957423,11.953567,11.95236,11.948896,11.945484,11.942004,11.939909,11.937585,11.934115,11.925963,11.913832,11.899666,11.882121,11.866441,11.845172,11.8255005,11.800174,11.782792,11.756178,11.7364025,11.698809,11.666904,11.613107,11.566915,11.52903,11.419909,10.551613,9.500008
8.390717,8.392591,8.392121,8.388158,8.383038,8.374394,8.366522,8.355341,8.346808,8.33413,8.324132,8.312445,8.306287,8.294273,8.2837715,8.26925,8.259077,8.249427,8.245433,8.242039,8.241542,8.241028,8.241893,8.243668,8.245747,8.246887,8.247503,8.246205,8.25068,8.262265,8.259451,8.241508,8.233227,8.239659,8.219589,8.189598,8.140373,8.1605425,8.362785,8.8805895,10.175767,11.398448,11.784237,11.721824,11.778497,11.794053,11.797942,11.800684,11.809636,11.821979,11.829863,11.843568,11.855097,11.868282,11.875487,11.888466,11.8994875,11.913107,11.923492,11.936786,11.948337,11.960766,11.972651,11.985969,11.996049,12.000032,11.999555,11.997122,11.992994,11.990417,11.985481,11.980863,11.97662,11.975341,11.970236,11.964716,11.95978,11.957414,11.954727,11.951183,11.942912,11.930726,11.91651,11.89892,11.8832,11.861852,11.842147,11.816545,11.7988,11.771517,11.751189,11.712682,11.680055,11.625659,11.579222,11.530386,11.413231,10.588715,9.599439
8.496691,8.498107,8.497892,8.494591,8.48988,8.481824,8.474438,8.464282,8.456884,8.445423,8.435841,8.425502,8.420709,8.412608,8.406262,8.398894,8.393504,8.377667,8.362901,8.357588,8.360445,8.3606825,8.362013,8.364548,8.367723,8.370021,8.371882,8.3714905,8.37626,8.387296,8.384216,8.366522,8.358836,8.365874,8.3453665,8.314486,8.268973,8.293326,8.498031,9.004338,10.248394,11.420232,11.796772,11.743737,11.799923,11.814898,11.818813,11.821411,11.829642,11.842702,11.852694,11.867759,11.879151,11.889918,11.893864,11.905241,11.916785,11.93033,11.940477,11.952917,11.964163,11.978376,11.992183,12.005475,12.014843,12.018603,12.017803,12.015054,12.010449,12.007491,12.002077,11.997164,11.992528,11.990991,11.985669,11.98004,11.974142,11.970671,11.967438,11.963925,11.95554,11.9433155,11.929094,11.9115305,11.8958235,11.87446,11.854764,11.829,11.8110285,11.78327,11.762515,11.723342,11.690208,11.635392,11.588797,11.532723,11.410475,10.6163025,9.670432
8.6461315,8.646885,8.646938,8.644543,8.640615,8.633679,8.6272745,8.618454,8.612123,8.601886,8.592926,8.5838175,8.580038,8.574959,8.571854,8.569491,8.567692,8.552731,8.535778,8.527296,8.527626,8.527907,8.530853,8.534287,8.538757,8.542672,8.545973,8.546072,8.551072,8.562188,8.558757,8.540368,8.532949,8.541017,8.523622,8.496108,8.455807,8.481596,8.681016,9.164411,10.33901,11.446249,11.812703,11.773979,11.829842,11.844223,11.848981,11.852062,11.859352,11.873582,11.886813,11.903778,11.914626,11.922443,11.92272,11.93145,11.9425,11.95511,11.964912,11.977506,11.989599,12.005444,12.020367,12.033166,12.041349,12.044507,12.042972,12.039602,12.03418,12.030612,12.024475,12.019139,12.013942,12.012042,12.00657,12.000998,11.993887,11.988884,11.984949,11.981542,11.973069,11.960854,11.9467,11.929228,11.913566,11.892219,11.872578,11.846656,11.82842,11.800063,11.778747,11.738722,11.704941,11.650151,11.604034,11.535196,11.40212,10.651245,9.769276
8.752,8.752305,8.752486,8.75072,8.747517,8.741601,8.736112,8.728134,8.722104,8.712364,8.703909,8.695366,8.691883,8.687038,8.683962,8.680891,8.67897,8.672031,8.663735,8.652689,8.645616,8.645175,8.650034,8.653951,8.659147,8.664268,8.668375,8.668149,8.6732435,8.685408,8.681344,8.660578,8.65294,8.663002,8.65087,8.628633,8.591617,8.615018,8.804637,9.2674465,10.395079,11.461777,11.823071,11.795045,11.8509035,11.8650055,11.870865,11.874716,11.881405,11.896493,11.912055,11.930288,11.940572,11.94665,11.944951,11.951548,11.961415,11.972777,11.982319,11.996035,12.009703,12.02607,12.04066,12.052863,12.060171,12.062726,12.060487,12.056569,12.050465,12.046411,12.0397215,12.034079,12.028484,12.026334,12.020778,12.015281,12.007415,12.001438,11.997079,11.99377,11.985282,11.973115,11.959054,11.941679,11.9260645,11.904749,11.885178,11.859193,11.840808,11.812079,11.790396,11.74982,11.71562,11.661265,11.615969,11.536159,11.392708,10.672842,9.838141
8.902296,8.902492,8.902965,8.901867,8.899359,8.8944435,8.889877,8.882934,8.877479,8.8686495,8.860985,8.853484,8.850673,8.84667,8.844103,8.841248,8.839775,8.839244,8.837477,8.824332,8.811633,8.811179,8.818403,8.82374,8.830243,8.836284,8.840905,8.840543,8.845612,8.856804,8.859579,8.851219,8.843451,8.840828,8.827696,8.814271,8.783031,8.804179,8.977364,9.407727,10.468991,11.480222,11.835279,11.823024,11.878873,11.892708,11.900811,11.9064,11.912394,11.928702,11.947441,11.967418,11.976905,11.98176,11.978948,11.982584,11.989536,11.998945,12.008507,12.023643,12.039034,12.055436,12.068949,12.080128,12.086151,12.087697,12.084292,12.079466,12.072372,12.067725,12.060395,12.054411,12.048387,12.045973,12.040462,12.035179,12.02601,12.018327,12.01356,12.010827,12.002495,11.9904175,11.976532,11.959318,11.943793,11.922516,11.90301,11.876873,11.858217,11.828919,11.806706,11.765402,11.730672,11.677145,11.633264,11.53885,11.3817835,10.707802,9.9407215
9.009703,9.01018,9.010928,9.010157,9.007926,9.003438,8.999294,8.992979,8.988008,8.979948,8.972907,8.966273,8.964052,8.960853,8.95882,8.956666,8.955751,8.956804,8.956418,8.9432,8.9298115,8.929758,8.938058,8.944763,8.952348,8.95849,8.963056,8.962816,8.967787,8.976732,8.989319,8.999848,8.992067,8.970472,8.95139,8.945333,8.918887,8.938947,9.098887,9.50415,10.517832,11.490401,11.841886,11.841594,11.897444,11.911193,11.92148,11.928855,11.934474,11.951687,11.972662,11.993838,12.002673,12.007547,12.005223,12.006901,12.010965,12.018867,12.028664,12.044626,12.060788,12.076501,12.088633,12.098889,12.103994,12.104763,12.100505,12.095035,12.087296,12.082299,12.074616,12.06846,12.062226,12.059693,12.054338,12.049302,12.039111,12.03004,12.025014,12.022831,12.01469,12.002723,11.9889965,11.971913,11.956468,11.935218,11.915738,11.889459,11.870578,11.8408575,11.818274,11.776505,11.7414665,11.688703,11.646016,11.541796,11.375733,10.73605,10.017857
9.159813,9.1605,9.161568,9.161302,9.159537,9.155794,9.152394,9.147098,9.142856,9.135928,9.1298,9.12441,9.123018,9.1209345,9.119635,9.118459,9.118281,9.120162,9.121248,9.11453,9.106187,9.10242,9.104601,9.1107435,9.119546,9.125981,9.131195,9.131751,9.137351,9.1453705,9.16309,9.183232,9.175317,9.14384,9.124548,9.126132,9.104456,9.122982,9.276637,9.65837,10.597424,11.5018835,11.847457,11.867263,11.923088,11.936686,11.950688,11.961166,11.966173,11.985375,12.010923,12.034123,12.0409775,12.045566,12.044478,12.0453415,12.047424,12.054237,12.063669,12.078541,12.092816,12.104856,12.113389,12.121634,12.126113,12.127005,12.123595,12.119091,12.111845,12.106466,12.098273,12.091841,12.085319,12.082651,12.077405,12.072559,12.061494,12.050889,12.0431595,12.038898,12.03071,12.019908,12.0066,11.989603,11.974033,11.952493,11.932741,11.906357,11.887696,11.857961,11.835061,11.792885,11.757524,11.706246,11.665736,11.5495405,11.372799,10.783599,10.134265
9.277102,9.277927,9.279246,9.279404,9.278036,9.2749405,9.2722,9.267791,9.264173,9.258189,9.252811,9.248419,9.24768,9.246455,9.245706,9.245321,9.245671,9.246897,9.248223,9.249811,9.248763,9.240253,9.2339735,9.238249,9.247559,9.254142,9.26018,9.261761,9.268273,9.27667,9.293679,9.312253,9.304127,9.273862,9.258661,9.264671,9.245498,9.263009,9.420787,9.792674,10.667943,11.5092325,11.8492775,11.886837,11.942469,11.955954,11.973513,11.987033,11.991703,12.012345,12.041233,12.065465,12.070185,12.074535,12.074977,12.076735,12.078799,12.085443,12.094008,12.10643,12.11733,12.125131,12.130242,12.136678,12.141086,12.142709,12.140983,12.138123,12.132046,12.126617,12.118238,12.111691,12.105046,12.102319,12.097218,12.092618,12.081901,12.07112,12.0606,12.0531845,12.044167,12.034021,12.020816,12.0039215,11.988414,11.966919,11.9472275,11.920787,11.901979,11.87198,11.84883,11.8065605,11.771318,11.720451,11.680325,11.556007,11.373595,10.825581,10.2303295
9.426611,9.427731,9.429478,9.430274,9.429501,9.427309,9.425461,9.422185,9.419318,9.414467,9.409992,9.406877,9.407031,9.406878,9.406733,9.407191,9.408102,9.409626,9.411361,9.416033,9.417359,9.406575,9.396804,9.400533,9.410357,9.417049,9.423686,9.4262085,9.433415,9.44158,9.459423,9.479755,9.470846,9.437629,9.426249,9.439701,9.42374,9.439351,9.604323,9.966256,10.761502,11.521836,11.853062,11.91123,11.965886,11.979243,12.001798,12.019505,12.024076,12.044077,12.072844,12.095524,12.098028,12.101972,12.1039505,12.107575,12.11083,12.117219,12.123971,12.133188,12.140843,12.146315,12.150179,12.155658,12.159737,12.16137,12.159938,12.157255,12.151748,12.14702,12.1394,12.13321,12.126805,12.124032,12.119714,12.116366,12.109391,12.102091,12.092098,12.081983,12.068128,12.0534525,12.038284,12.0222025,12.008769,11.990455,11.973882,11.947562,11.925041,11.891793,11.868362,11.826492,11.792353,11.737391,11.690618,11.5537,11.367001,10.871187,10.3471
9.557077,9.558543,9.560752,9.562192,9.562002,9.56069,9.5597105,9.557564,9.555493,9.55174,9.54809,9.545955,9.546663,9.547264,9.547612,9.548701,9.5499935,9.552081,9.553968,9.557324,9.55762,9.548868,9.541138,9.5437355,9.551808,9.558162,9.565136,9.568337,9.575993,9.583867,9.602048,9.623331,9.614223,9.579726,9.570572,9.58807,9.574818,9.590895,9.766433,10.123386,10.849303,11.537102,11.858962,11.933742,11.987259,12.000495,12.027092,12.048478,12.054028,12.071634,12.095912,12.114673,12.116214,12.119979,12.122819,12.128188,12.132975,12.139185,12.144233,12.15096,12.156614,12.161735,12.166111,12.171515,12.175276,12.176527,12.174509,12.1711235,12.165623,12.161716,12.155056,12.14934,12.143252,12.140433,12.136855,12.134737,12.131767,12.128619,12.121394,12.11093,12.093517,12.074511,12.057577,12.042014,12.030155,12.014226,12.000094,11.973218,11.946781,11.909366,11.884302,11.842346,11.81016,11.749043,11.692187,11.5469475,11.362787,10.909372,10.441558
9.699019,9.700851,9.703587,9.705759,9.706218,9.705885,9.70582,9.705109,9.704308,9.7021475,9.699586,9.698206,9.698849,9.700028,9.701188,9.703067,9.704742,9.707262,9.709363,9.712027,9.71307,9.711612,9.708496,9.704481,9.704299,9.709492,9.717522,9.7217865,9.730458,9.738504,9.75682,9.778205,9.768941,9.734111,9.724907,9.7427225,9.730628,9.74849,9.939413,10.295134,10.946939,11.555349,11.867515,11.960755,12.013056,12.026106,12.056878,12.083138,12.092114,12.106732,12.122404,12.135292,12.137505,12.14161,12.144619,12.150092,12.154832,12.160534,12.1648035,12.170428,12.17512,12.179557,12.183549,12.188597,12.192079,12.193121,12.190895,12.187318,12.181742,12.177923,12.171358,12.165683,12.15953,12.156571,12.153022,12.151108,12.148548,12.146207,12.141526,12.134384,12.12135,12.105578,12.090167,12.0736,12.059516,12.040022,12.022952,11.993398,11.966536,11.925497,11.894488,11.850965,11.823252,11.756927,11.689237,11.541659,11.36737,10.953596,10.532653
9.842394,9.844663,9.847948,9.850848,9.851903,9.8526325,9.853758,9.854696,9.855147,9.854501,9.852967,9.852233,9.852737,9.854149,9.855718,9.858132,9.860188,9.8630705,9.865351,9.867329,9.869155,9.874432,9.87655,9.8693285,9.863818,9.867621,9.875414,9.879971,9.888768,9.896547,9.9136,9.932807,9.928307,9.902503,9.891497,9.899951,9.894431,9.925628,10.125556,10.467657,11.048249,11.584534,11.884709,11.992534,12.04512,12.057993,12.088663,12.115725,12.127321,12.139379,12.147562,12.15582,12.159328,12.163956,12.166746,12.171644,12.17577,12.181006,12.185126,12.190659,12.195268,12.199334,12.2028475,12.207511,12.21064,12.211425,12.208937,12.205194,12.199304,12.195151,12.188224,12.1823845,12.175972,12.172818,12.168902,12.166635,12.162807,12.159605,12.156532,12.153071,12.1459465,12.135133,12.121894,12.103988,12.086986,12.062699,12.041136,12.008951,11.983713,11.941377,11.905751,11.859024,11.831741,11.761638,11.688859,11.545996,11.385454,11.006555,10.622575
9.9745865,9.977298,9.981066,9.98458,9.986081,9.987918,9.990646,9.993303,9.994528,9.994833,9.994021,9.994078,9.995005,9.996377,9.9974785,9.999954,10.0024395,10.005616,10.008032,10.010123,10.012194,10.017122,10.021285,10.021425,10.021508,10.023786,10.027681,10.030232,10.036077,10.041133,10.055429,10.071963,10.081575,10.078725,10.062948,10.04718,10.059202,10.124187,10.320437,10.625426,11.139874,11.618814,11.90688,12.026049,12.08212,12.095061,12.119891,12.140592,12.1502285,12.160722,12.168056,12.176144,12.18026,12.185443,12.188461,12.193412,12.197358,12.202324,12.206161,12.211403,12.215746,12.219479,12.2225685,12.226703,12.229257,12.229624,12.226729,12.222713,12.216557,12.212252,12.205195,12.199333,12.1927595,12.189405,12.185181,12.182645,12.178238,12.17453,12.171227,12.167902,12.161082,12.150576,12.137411,12.119375,12.102389,12.077459,12.054315,12.021533,11.99752,11.956565,11.922234,11.870514,11.834262,11.762077,11.694991,11.560145,11.409158,11.060617,10.708875
10.130774,10.134073,10.138434,10.142611,10.144592,10.147483,10.151704,10.155928,10.157818,10.158974,10.158824,10.159759,10.161299,10.16277,10.163412,10.165986,10.168931,10.172457,10.175079,10.177654,10.179962,10.183069,10.188097,10.195976,10.203597,10.206538,10.209749,10.212789,10.219352,10.225604,10.236617,10.245563,10.262511,10.277706,10.266438,10.2424135,10.268192,10.350614,10.53522,10.802374,11.251287,11.672478,11.940895,12.063308,12.120498,12.133046,12.151057,12.165875,12.175178,12.186592,12.195074,12.203501,12.206868,12.211548,12.214538,12.219671,12.223924,12.229073,12.232892,12.237969,12.24206,12.245625,12.248508,12.25234,12.254506,12.254584,12.251246,12.246799,12.240036,12.2352495,12.22773,12.221693,12.214885,12.211379,12.207099,12.204658,12.200671,12.197304,12.193469,12.18906,12.181034,12.169512,12.155553,12.137183,12.120268,12.095494,12.07197,12.03973,12.016926,11.978825,11.948153,11.894385,11.851004,11.777201,11.714648,11.586353,11.445113,11.13755,10.831972
10.255685,10.259495,10.264373,10.269068,10.2714205,10.274926,10.2799,10.285005,10.287407,10.28922,10.289545,10.291069,10.2929735,10.294721,10.295389,10.29822,10.301465,10.305281,10.308104,10.310996,10.313635,10.317082,10.322539,10.330311,10.339562,10.345634,10.354448,10.362502,10.376186,10.389992,10.397521,10.392639,10.399777,10.41453,10.42226,10.423264,10.444472,10.50144,10.6735525,10.929847,11.338588,11.718723,11.967843,12.085223,12.139062,12.150805,12.166454,12.182175,12.195861,12.211443,12.221148,12.228855,12.229982,12.232661,12.234953,12.240021,12.244929,12.25057,12.254583,12.25948,12.263218,12.266706,12.26969,12.273677,12.275956,12.276099,12.272477,12.26757,12.259942,12.254365,12.246028,12.2396145,12.232522,12.228993,12.225106,12.22333,12.221127,12.219401,12.215769,12.210387,12.201743,12.18954,12.174655,12.155212,12.137103,12.111782,12.088591,12.057444,12.035456,11.999571,11.971256,11.921169,11.880913,11.804708,11.736022,11.605553,11.470911,11.204004,10.948428
10.421387,10.425854,10.431368,10.436678,10.439636,10.4436035,10.448617,10.454053,10.457048,10.459725,10.460662,10.462935,10.465262,10.467869,10.469298,10.472875,10.476471,10.48078,10.483994,10.487492,10.490745,10.494989,10.501004,10.50804,10.518421,10.528204,10.542566,10.554389,10.573631,10.592697,10.603469,10.598406,10.597562,10.600894,10.616693,10.63783,10.663936,10.71179,10.881366,11.124595,11.475999,11.794212,12.015291,12.1253195,12.173032,12.18341,12.198122,12.215515,12.233036,12.248926,12.254411,12.258111,12.257953,12.259738,12.262182,12.267882,12.273668,12.280118,12.284544,12.28967,12.293425,12.297137,12.300348,12.304491,12.306826,12.307004,12.303163,12.297904,12.289656,12.283527,12.274667,12.268064,12.260813,12.257252,12.253573,12.252173,12.250879,12.250101,12.247309,12.242386,12.2343235,12.222311,12.207243,12.187116,12.16807,12.141954,12.118593,12.087453,12.065163,12.030423,12.004055,11.957208,11.919626,11.844069,11.773965,11.646921,11.523023,11.305761,11.106597
10.543211,10.548132,10.554068,10.559787,10.56331,10.567389,10.571708,10.5768175,10.5802965,10.583729,10.585164,10.587963,10.590492,10.594053,10.596588,10.601022,10.604851,10.609603,10.613197,10.617273,10.621106,10.625974,10.632624,10.640169,10.651494,10.662927,10.678154,10.689026,10.707454,10.72485,10.745506,10.758637,10.758833,10.745511,10.746469,10.762783,10.807498,10.882645,11.066601,11.297753,11.596751,11.8570385,12.056121,12.163493,12.206405,12.215671,12.230899,12.249136,12.267705,12.278736,12.275095,12.272713,12.273375,12.276266,12.279829,12.286553,12.292813,12.299792,12.3045025,12.310065,12.314149,12.31815,12.321423,12.325427,12.327485,12.327464,12.323435,12.318067,12.309773,12.30366,12.294904,12.288436,12.281244,12.277632,12.273755,12.272093,12.269929,12.268535,12.266973,12.264246,12.258105,12.247423,12.233333,12.21356,12.194687,12.168058,12.143854,12.111362,12.0878105,12.052522,12.026797,11.979513,11.940266,11.868023,11.80423,11.686148,11.5720625,11.388308,11.221809
10.715642,10.721217,10.727722,10.73397,10.738126,10.742547,10.746657,10.7516165,10.7551985,10.759077,10.760979,10.764739,10.768137,10.77306,10.776639,10.782049,10.786279,10.791655,10.7957535,10.800574,10.805113,10.810695,10.818038,10.826057,10.838514,10.851978,10.868896,10.879964,10.897925,10.913282,10.93976,10.963958,10.974059,10.963723,10.965816,10.980924,11.035195,11.119976,11.298073,11.504136,11.749199,11.955949,12.128659,12.227928,12.26493,12.272326,12.286801,12.302116,12.316012,12.320577,12.312111,12.307198,12.309138,12.313853,12.31895,12.327316,12.334496,12.342633,12.348157,12.354857,12.359893,12.364829,12.368763,12.373193,12.375587,12.375892,12.372309,12.367319,12.3596,12.353972,12.345805,12.33972,12.332762,12.3291025,12.324923,12.322817,12.31956,12.317214,12.315724,12.313807,12.3082485,12.297947,12.284222,12.264316,12.244991,12.217059,12.191313,12.156766,12.131655,12.095082,12.068981,12.021273,11.981285,11.915595,11.861819,11.758691,11.658961,11.507252,11.372195
10.837928,10.843972,10.850863,10.857444,10.861916,10.866728,10.871304,10.876411,10.879617,10.88333,10.88538,10.890003,10.894488,10.900387,10.904295,10.910215,10.914791,10.920605,10.925033,10.930324,10.935276,10.941246,10.948936,10.957098,10.970271,10.98507,11.003785,11.016388,11.034887,11.049455,11.073586,11.093559,11.116854,11.129367,11.150555,11.170485,11.217978,11.28552,11.4391775,11.62184,11.843282,12.032715,12.19006,12.280169,12.313285,12.318738,12.331293,12.34139,12.347519,12.348098,12.34252,12.340441,12.343227,12.3492775,12.355346,12.364975,12.373005,12.382272,12.388674,12.396519,12.402526,12.408459,12.4132395,12.418408,12.421548,12.422491,12.419684,12.415298,12.408403,12.403424,12.39597,12.390267,12.3835945,12.379952,12.375619,12.373234,12.369479,12.366553,12.363957,12.360899,12.354169,12.343009,12.32878,12.308256,12.287969,12.258553,12.231387,12.195308,12.169367,12.131644,12.104371,12.05663,12.017462,11.957702,11.911576,11.820611,11.731575,11.592054,11.46962
11.013537,11.0201645,11.027651,11.034828,11.039831,11.045349,11.050681,11.056435,11.05977,11.0638,11.066199,11.071661,11.076984,11.083752,11.088055,11.094415,11.099212,11.105483,11.110352,11.116151,11.121563,11.128125,11.136345,11.144657,11.158474,11.174551,11.19506,11.209408,11.22806,11.240742,11.262994,11.281469,11.312645,11.337824,11.368123,11.389024,11.438193,11.50162,11.629713,11.778867,11.96952,12.136828,12.274372,12.35526,12.3892,12.398816,12.412296,12.41873,12.417232,12.413101,12.409359,12.40962,12.41364,12.421532,12.428947,12.440204,12.449252,12.459824,12.467287,12.476824,12.484571,12.492456,12.499105,12.505872,12.5107765,12.513434,12.512535,12.509509,12.5039215,12.499598,12.492858,12.48763,12.480937,12.476797,12.471319,12.46771,12.462097,12.457427,12.452011,12.446396,12.437235,12.42445,12.408705,12.387523,12.367482,12.338392,12.311182,12.27405,12.246361,12.207233,12.179648,12.132876,12.095138,12.040331,11.999906,11.919156,11.840347,11.718184,11.613833
11.140513,11.147575,11.155544,11.163232,11.168684,11.174803,11.180709,11.187173,11.19101,11.195608,11.198354,11.204148,11.209598,11.2165985,11.221092,11.227615,11.232485,11.239009,11.244158,11.250232,11.255876,11.26278,11.271267,11.279591,11.293564,11.310059,11.331283,11.34657,11.365048,11.376196,11.397782,11.417314,11.446901,11.4688225,11.49442,11.512339,11.569118,11.64148,11.756078,11.881019,12.053198,12.20843,12.333677,12.410331,12.449219,12.466435,12.482838,12.489083,12.484496,12.47804,12.474608,12.475817,12.480781,12.489996,12.498358,12.510662,12.520294,12.531597,12.539703,12.550496,12.5597105,12.569293,12.577627,12.585803,12.592326,12.596649,12.597576,12.595819,12.591252,12.587237,12.580828,12.575893,12.568914,12.564085,12.557206,12.552202,12.544557,12.538074,12.529789,12.521651,12.51018,12.495912,12.47852,12.456976,12.43809,12.410836,12.385031,12.348032,12.318783,12.278759,12.251697,12.206228,12.169777,12.11614,12.076188,11.997833,11.922803,11.8120985,11.719901
11.318019,11.327253,11.336346,11.344636,11.35103,11.3573885,11.36242,11.368273,11.372405,11.377752,11.381231,11.387482,11.3928,11.399843,11.404529,11.412911,11.420058,11.427911,11.433237,11.440403,11.446445,11.451803,11.458116,11.465356,11.478832,11.495096,11.516382,11.531201,11.551911,11.567639,11.591876,11.610592,11.635573,11.651758,11.672101,11.688217,11.749267,11.825073,11.919982,12.016209,12.1667185,12.307997,12.417506,12.487326,12.530897,12.555433,12.572312,12.578973,12.575741,12.571507,12.569827,12.573516,12.580213,12.591755,12.60162,12.615171,12.625152,12.637442,12.646594,12.659024,12.669564,12.679997,12.688294,12.695782,12.7014265,12.705354,12.706316,12.704906,12.700948,12.697413,12.691508,12.686853,12.679758,12.67449,12.666768,12.660934,12.652042,12.644396,12.634189,12.624284,12.6111355,12.595667,12.576967,12.554746,12.5354395,12.509604,12.487213,12.452345,12.42209,12.380085,12.351352,12.305581,12.270422,12.217896,12.178413,12.101487,12.029699,11.935548,11.862842
11.457353,11.468772,11.478926,11.487762,11.49516,11.501675,11.505553,11.510461,11.514738,11.520645,11.524734,11.531219,11.5362215,11.543009,11.547661,11.557697,11.567034,11.576026,11.581361,11.589478,11.595782,11.599251,11.603126,11.609385,11.622376,11.638117,11.658918,11.672573,11.695614,11.717071,11.744271,11.761277,11.780996,11.791388,11.807597,11.823069,11.881684,11.953228,12.033703,12.113593,12.251609,12.3848915,12.484289,12.548886,12.594603,12.622648,12.638025,12.645954,12.647658,12.648829,12.649364,12.655756,12.664105,12.677736,12.688813,12.703226,12.713229,12.725945,12.735516,12.748552,12.759228,12.769061,12.775811,12.781276,12.784568,12.786689,12.786261,12.784281,12.780244,12.777016,12.771423,12.766869,12.759805,12.754485,12.746749,12.74093,12.732016,12.724288,12.713826,12.703586,12.690095,12.674265,12.655155,12.632409,12.611861,12.586562,12.567382,12.535153,12.504945,12.4614725,12.430622,12.383951,12.349771,12.297128,12.256717,12.179885,12.11031,12.028442,11.970354
11.634373,11.645598,11.656363,11.666652,11.675673,11.684344,11.690094,11.696745,11.701838,11.708333,11.712575,11.719231,11.724372,11.730942,11.735111,11.742979,11.749915,11.7578535,11.763571,11.7714,11.777862,11.7826185,11.78851,11.796691,11.811481,11.828398,11.850097,11.864948,11.886134,11.903112,11.926403,11.942545,11.9627905,11.974874,11.991864,12.005903,12.0499325,12.1026125,12.167094,12.236824,12.360025,12.480934,12.569771,12.628894,12.673869,12.703126,12.717566,12.727037,12.732479,12.7385235,12.741931,12.75185,12.762314,12.778594,12.79122,12.807537,12.818406,12.830578,12.838402,12.84953,12.858433,12.866408,12.871701,12.876143,12.87866,12.880066,12.879107,12.876931,12.872876,12.869758,12.864276,12.859766,12.852628,12.847157,12.839232,12.833276,12.824106,12.816089,12.805027,12.794165,12.780108,12.763806,12.744077,12.720861,12.7000065,12.674927,12.656433,12.624927,12.594838,12.551867,12.521556,12.476847,12.44508,12.39131,12.34734,12.276978,12.219472,12.151501,12.103876
11.792227,11.802381,11.8134775,11.825099,11.835261,11.846086,11.854512,11.863543,11.86937,11.876037,11.879954,11.88644,11.891738,11.897979,11.901478,11.905923,11.908947,11.914761,11.920471,11.926975,11.933119,11.940148,11.94956,11.960404,11.977283,11.995443,12.017813,12.034121,12.051326,12.059797,12.076448,12.091989,12.115046,12.131842,12.151476,12.163826,12.190762,12.222421,12.276168,12.343862,12.456764,12.56743,12.649607,12.704771,12.74633,12.77375,12.7875595,12.798277,12.805683,12.815171,12.821438,12.834615,12.846815,12.864776,12.87797,12.895252,12.906532,12.917464,12.922952,12.93122,12.937634,12.943373,12.947429,12.951463,12.954034,12.955289,12.954159,12.951855,12.947631,12.944373,12.938783,12.934254,12.927054,12.921515,12.913551,12.907596,12.898378,12.890265,12.878894,12.867716,12.853498,12.83722,12.817553,12.7945595,12.774266,12.749146,12.729449,12.697391,12.6678705,12.626828,12.598543,12.556979,12.527738,12.473539,12.426818,12.364693,12.320222,12.261373,12.217389
11.969529,11.981021,11.993269,12.005459,12.015707,12.026659,12.035629,12.045112,12.051017,12.057465,12.061044,12.06701,12.071932,12.077599,12.080665,12.084553,12.087104,12.091663,12.095971,12.100688,12.105678,12.112512,12.122439,12.1338005,12.150718,12.168284,12.189353,12.204691,12.2196045,12.225571,12.239273,12.253157,12.274798,12.291324,12.309116,12.318847,12.337796,12.36032,12.404253,12.4640665,12.566201,12.667878,12.74321,12.794214,12.83281,12.85889,12.872252,12.883933,12.892502,12.905492,12.915771,12.932866,12.946604,12.96493,12.976995,12.992645,13.002496,13.012235,13.0170555,13.023946,13.028904,13.033055,13.035738,13.038702,13.0403595,13.040836,13.03902,13.036338,13.031765,13.028286,13.022543,13.018013,13.010793,13.005225,12.997303,12.9914255,12.982267,12.97413,12.962423,12.950944,12.936761,12.921089,12.902587,12.881013,12.861875,12.837417,12.817474,12.785564,12.756783,12.716956,12.689395,12.650274,12.6237755,12.572369,12.527017,12.47037,12.432167,12.380225,12.3414345
12.156615,12.1697235,12.182864,12.194846,12.20442,12.214291,12.222543,12.231194,12.236542,12.242223,12.24525,12.250326,12.254538,12.259364,12.261977,12.266133,12.269323,12.273165,12.276012,12.279371,12.283245,12.288833,12.297588,12.308041,12.323544,12.339401,12.357968,12.371055,12.383859,12.389253,12.401073,12.412802,12.430889,12.444572,12.459043,12.46683,12.483522,12.50381,12.540666,12.592024,12.685372,12.779927,12.849096,12.895192,12.929209,12.952139,12.964551,12.976116,12.984422,12.998878,13.011649,13.031338,13.0462885,13.064277,13.074606,13.087639,13.095397,13.104101,13.109135,13.115674,13.120141,13.123637,13.125571,13.127816,13.128722,13.128582,13.126176,13.123116,13.1182375,13.114622,13.108894,13.104505,13.097482,13.092054,13.08437,13.07869,13.0697565,13.061749,13.050054,13.038656,13.024914,13.010193,12.9932575,12.973283,12.955117,12.931102,12.910788,12.879452,12.852259,12.814584,12.78835,12.750699,12.724734,12.677643,12.637706,12.585961,12.550133,12.503022,12.468963
12.333984,12.347158,12.360258,12.371879,12.380995,12.390164,12.397837,12.4056635,12.410344,12.41514,12.417565,12.421775,12.425373,12.429337,12.431354,12.434677,12.437312,12.440735,12.443517,12.44696,12.450765,12.455642,12.463223,12.472614,12.48663,12.501067,12.517499,12.528767,12.538799,12.541924,12.550858,12.560836,12.575852,12.586973,12.599682,12.607279,12.621791,12.638737,12.66868,12.712682,12.799157,12.888162,12.951554,12.991915,13.020066,13.03829,13.04892,13.059441,13.067063,13.080917,13.093248,13.113539,13.129868,13.148176,13.157649,13.169216,13.1756735,13.183659,13.188795,13.195392,13.200099,13.203942,13.206271,13.208876,13.210003,13.209899,13.207359,13.204071,13.199092,13.195568,13.1901655,13.186132,13.179589,13.1744795,13.167203,13.1617775,13.153132,13.145323,13.133988,13.123007,13.109847,13.095796,13.079829,13.060392,13.041993,13.017178,12.995569,12.964697,12.939813,12.905617,12.882176,12.844599,12.815491,12.771435,12.738542,12.692994,12.660205,12.618776,12.589704
12.54344,12.5563,12.568875,12.579657,12.588014,12.596115,12.602826,12.609324,12.612947,12.616438,12.618045,12.6211195,12.62394,12.626815,12.628086,12.630276,12.632118,12.635107,12.637985,12.641578,12.645345,12.649638,12.656069,12.664228,12.67645,12.689163,12.703269,12.7128,12.720028,12.72072,12.726317,12.734073,12.7454405,12.753648,12.764871,12.773003,12.78578,12.799817,12.825661,12.864893,12.944022,13.025107,13.081033,13.113933,13.134586,13.146732,13.155053,13.16379,13.169956,13.181819,13.192456,13.211878,13.228721,13.247282,13.256679,13.2677355,13.273565,13.281169,13.286274,13.292838,13.297573,13.301354,13.303643,13.306289,13.307515,13.307511,13.305067,13.301768,13.296976,13.293755,13.288815,13.285114,13.279022,13.274213,13.267285,13.262058,13.253674,13.246097,13.2353115,13.224989,13.212717,13.199406,13.183925,13.164657,13.14614,13.121398,13.0997505,13.070678,13.048636,13.018615,12.998524,12.961729,12.929943,12.889081,12.862995,12.823665,12.794078,12.758411,12.734236
12.709003,12.721926,12.734148,12.744113,12.751727,12.758824,12.764696,12.770037,12.772724,12.775065,12.775963,12.778067,12.780225,12.782208,12.7829,12.784348,12.785723,12.7881775,12.790701,12.793733,12.797048,12.801143,12.807284,12.81486,12.825944,12.837339,12.849889,12.858595,12.864244,12.8634205,12.866401,12.871965,12.880473,12.886835,12.897182,12.905772,12.91695,12.9286785,12.953454,12.991312,13.064831,13.1385765,13.188051,13.21479,13.229589,13.237267,13.244121,13.251666,13.256542,13.266913,13.276643,13.295046,13.311308,13.329899,13.339927,13.351499,13.357529,13.365253,13.370242,13.37658,13.380786,13.383531,13.384655,13.38639,13.387059,13.386883,13.384562,13.381447,13.376993,13.374091,13.369348,13.365601,13.359434,13.354565,13.347532,13.3422165,13.33377,13.32624,13.315719,13.305824,13.294276,13.281446,13.265602,13.246107,13.228009,13.204761,13.184904,13.15841,13.138249,13.110854,13.092778,13.057862,13.026594,12.9881,12.964751,12.929047,12.902189,12.870431,12.849365
12.92082,12.933596,12.945144,12.953942,12.960559,12.966385,12.971197,12.9751215,12.976668,12.977669,12.977776,12.9787855,12.9801855,12.981172,12.981228,12.981886,12.982774,12.9846115,12.986674,12.989012,12.991722,12.9954195,13.0010395,13.00783,13.01751,13.027325,13.037911,13.045261,13.049286,13.047492,13.048484,13.052185,13.057852,13.062075,13.070886,13.079289,13.088017,13.09755,13.126382,13.167451,13.231352,13.290454,13.330311,13.349864,13.358472,13.361511,13.366194,13.371722,13.374853,13.383288,13.391932,13.408746,13.423766,13.441986,13.452717,13.464878,13.471131,13.478495,13.482569,13.487462,13.490055,13.49101,13.490627,13.491237,13.491248,13.490758,13.488491,13.485582,13.481581,13.479071,13.474838,13.471412,13.465722,13.461201,13.45458,13.449511,13.441472,13.43432,13.424387,13.415155,13.404631,13.392836,13.377665,13.359228,13.342548,13.321855,13.304665,13.281582,13.263717,13.239376,13.223413,13.191808,13.1631,13.127666,13.1060915,13.073674,13.04969,13.0216255,13.003378
