18.291164,24.34719,24.898993,24.06409,24.087725,24.083418,24.069763,24.046177,24.028845,24.002178,23.982018,23.962132,23.954262,23.94699,23.94596,23.946114,23.948452,23.950794,23.952307,23.952229,23.951061,23.950197,23.948982,23.947666,23.947037,23.947943,23.947407,23.945686,23.941547,23.937422,23.933279,23.931479,23.928476,23.926386,23.925177,23.925484,23.9261,23.92687,23.927166,23.92706,23.926756,23.926588,23.92681,23.927185,23.92734,23.927826,23.92846,23.929047,23.929163,23.929718,23.930351,23.932104,23.933918,23.935556,23.936335,23.93781,23.938572,23.938114,23.936077,23.933475,23.929338,23.92523,23.918829,23.912788,23.904104,23.897434,23.887468,23.87997,23.868374,23.859707,23.846489,23.836489,23.820465,23.806835,23.786728,23.76903,23.747337,23.727924,23.705612,23.684607,23.665852,23.64723,23.632067,23.614569,23.600739,23.584734,23.574621,23.561543,23.552616,23.542501,23.537283,23.531105,23.528004,23.525616,23.525051,23.522932,23.519249,23.511948,23.502512,23.49412,23.48149,23.459549,23.448734,23.45894,23.479118,23.50049,23.51655,23.57919,23.476543,23.477682,19.844593
18.28816,24.337479,24.893534,24.062164,24.081034,24.07315,24.060623,24.038637,24.022112,23.996262,23.976437,23.956974,23.94933,23.94226,23.94132,23.941687,23.944298,23.947079,23.94915,23.94973,23.949297,23.949047,23.948555,23.94788,23.94795,23.94926,23.949274,23.947947,23.944492,23.94093,23.93748,23.936104,23.933805,23.932291,23.93178,23.932589,23.933788,23.935038,23.935915,23.936344,23.936491,23.936775,23.937386,23.938257,23.938814,23.939814,23.940792,23.941895,23.942411,23.943432,23.94432,23.94632,23.948215,23.949982,23.950815,23.952278,23.952969,23.95247,23.950403,23.947763,23.943567,23.93938,23.9329,23.926819,23.91811,23.911425,23.901455,23.893957,23.882402,23.873795,23.860662,23.850733,23.834824,23.821304,23.801468,23.784071,23.762743,23.743656,23.721676,23.700972,23.682558,23.664179,23.649107,23.631554,23.617628,23.601393,23.591106,23.577547,23.568127,23.557247,23.55145,23.544228,23.540197,23.53639,23.534597,23.530817,23.525677,23.516584,23.505722,23.49606,23.48301,23.461514,23.451675,23.463747,23.4815,23.4943,23.508879,23.57475,23.494492,23.511961,20.137486
18.279911,24.33065,24.889627,24.059822,24.075687,24.065775,24.054312,24.03365,24.017717,23.992474,23.972898,23.95376,23.946297,23.939394,23.93852,23.93904,23.941849,23.94493,23.947384,23.94843,23.948519,23.9487,23.948715,23.948473,23.949049,23.950682,23.951117,23.950079,23.947102,23.943928,23.940973,23.939903,23.938082,23.936937,23.936882,23.93803,23.939636,23.941223,23.942472,23.94322,23.943636,23.94416,23.944973,23.946066,23.946804,23.948032,23.949165,23.950535,23.951283,23.95257,23.95361,23.955757,23.957714,23.959562,23.960445,23.961916,23.962576,23.962059,23.95997,23.95731,23.953085,23.948856,23.942335,23.93622,23.927477,23.92078,23.910788,23.903269,23.891697,23.883081,23.86995,23.860027,23.844135,23.830656,23.810957,23.793734,23.772629,23.753754,23.731987,23.71149,23.693317,23.675135,23.66016,23.642633,23.628695,23.61239,23.602053,23.588251,23.578548,23.567198,23.561031,23.553146,23.548532,23.543812,23.541216,23.536398,23.530394,23.520245,23.50858,23.498188,23.485012,23.464096,23.454906,23.4677,23.483536,23.490862,23.505045,23.573973,23.506792,23.531342,20.327341
18.258167,24.319468,24.88233,24.054132,24.067604,24.057121,24.048481,24.030527,24.015308,23.990913,23.971792,23.953196,23.945986,23.9393,23.938473,23.939146,23.942163,23.945564,23.948458,23.950037,23.950787,23.95157,23.952332,23.952728,23.95402,23.95609,23.957117,23.956505,23.954203,23.951557,23.949278,23.948637,23.947504,23.946917,23.94754,23.949184,23.951399,23.953484,23.955275,23.956478,23.957268,23.958149,23.95927,23.960701,23.961683,23.963228,23.964586,23.966341,23.967426,23.96908,23.970304,23.972641,23.974674,23.976637,23.977573,23.979015,23.979586,23.97904,23.97693,23.97421,23.969902,23.96559,23.95898,23.952812,23.944002,23.937246,23.927195,23.919645,23.908043,23.899414,23.886246,23.876291,23.860401,23.846973,23.827444,23.810446,23.789625,23.771025,23.749573,23.729395,23.711548,23.693638,23.67883,23.661367,23.647425,23.630991,23.620525,23.606304,23.596155,23.58404,23.57724,23.568302,23.5628,23.556776,23.553102,23.546885,23.53973,23.528227,23.515566,23.5043,23.49101,23.471233,23.462275,23.474474,23.485163,23.48261,23.495611,23.570805,23.523577,23.560717,20.550735
18.234358,24.310228,24.875685,24.048092,24.0613,24.052134,24.0464,24.03093,24.016125,23.992327,23.973598,23.955433,23.948425,23.94189,23.941078,23.941826,23.944948,23.948523,23.951668,23.953543,23.954704,23.955921,23.957235,23.958101,23.959902,23.96228,23.96373,23.963434,23.96161,23.95932,23.95751,23.957169,23.956541,23.956362,23.957483,23.959486,23.962149,23.964602,23.966774,23.968294,23.969343,23.970472,23.971815,23.973486,23.974625,23.976376,23.977882,23.979906,23.98123,23.98313,23.984453,23.986904,23.988977,23.991009,23.99197,23.993353,23.993834,23.993258,23.99113,23.988344,23.983942,23.979546,23.97285,23.96664,23.957771,23.950937,23.940817,23.933243,23.921606,23.912954,23.899729,23.889715,23.8738,23.860407,23.840977,23.824118,23.803467,23.785051,23.763834,23.743895,23.72627,23.708557,23.69389,23.676498,23.662577,23.646044,23.635462,23.620907,23.610428,23.597704,23.590391,23.580639,23.57447,23.567535,23.563148,23.556004,23.548111,23.535786,23.52256,23.510805,23.497517,23.4788,23.469543,23.480083,23.485647,23.47526,23.487194,23.567787,23.5349,23.582119,20.673723
18.19101,24.295057,24.864834,24.037699,24.051432,24.044193,24.041546,24.028688,24.014343,23.9912,23.972895,23.955294,23.948631,23.942438,23.941797,23.942837,23.946259,23.950268,23.953913,23.956335,23.958155,23.960024,23.962132,23.963663,23.966202,23.969034,23.971094,23.971256,23.970104,23.968307,23.967134,23.967207,23.967224,23.96755,23.969276,23.971703,23.974907,23.977781,23.98039,23.982254,23.983582,23.984974,23.986563,23.988497,23.9898,23.991776,23.993446,23.995775,23.997385,23.999546,24.000956,24.003458,24.005512,24.007526,24.008453,24.009674,24.009964,24.009272,24.007067,24.004154,23.999601,23.995066,23.988226,23.981926,23.972925,23.965963,23.955696,23.948046,23.936308,23.927588,23.914248,23.90414,23.888174,23.874813,23.855524,23.838877,23.818481,23.800337,23.779457,23.75987,23.742577,23.72517,23.710726,23.693499,23.679665,23.66312,23.652487,23.637636,23.626818,23.613453,23.605587,23.594913,23.587976,23.579927,23.574654,23.566422,23.557724,23.544489,23.530712,23.518522,23.505499,23.488384,23.479162,23.486782,23.48967,23.478605,23.491404,23.570856,23.551214,23.61354,20.820381
18.150824,24.281448,24.8546,24.02752,24.042742,24.037518,24.036657,24.02526,24.011179,23.98844,23.97042,23.953276,23.94696,23.94118,23.940815,23.942247,23.946033,23.950527,23.95467,23.957607,23.959991,23.96241,23.96515,23.967203,23.970318,23.973509,23.976051,23.976562,23.975906,23.974455,23.97373,23.974087,23.974537,23.97518,23.977274,23.979948,23.98347,23.986593,23.989437,23.991472,23.992939,23.994461,23.996174,23.998238,23.999615,24.00169,24.003435,24.005919,24.007687,24.009956,24.011354,24.013796,24.015749,24.017637,24.018448,24.019447,24.019527,24.018663,24.016335,24.013273,24.008568,24.003897,23.996916,23.990517,23.981377,23.974293,23.96388,23.956148,23.944298,23.935507,23.92206,23.91189,23.89589,23.882559,23.863396,23.846924,23.826736,23.808802,23.788185,23.768866,23.751827,23.734657,23.720392,23.703323,23.689587,23.673096,23.662476,23.64749,23.636482,23.62272,23.614489,23.603203,23.595745,23.586924,23.581032,23.572088,23.562922,23.549194,23.535204,23.522886,23.510263,23.494457,23.485535,23.490498,23.494196,23.489195,23.504276,23.577501,23.564047,23.639326,20.910461
18.107056,24.264791,24.840803,24.013794,24.031216,24.02863,24.02957,24.019691,24.005966,23.983826,23.96626,23.949825,23.94405,23.938951,23.939077,23.941172,23.94553,23.950733,23.955566,23.959223,23.962381,23.965525,23.969076,23.971771,23.975573,23.979183,23.982258,23.98315,23.982994,23.981869,23.981565,23.982185,23.983019,23.983942,23.986338,23.989206,23.992987,23.99631,23.999327,24.00148,24.003042,24.004648,24.00644,24.008566,24.009968,24.012066,24.013834,24.016376,24.018234,24.020493,24.021793,24.024029,24.02577,24.027369,24.027931,24.028542,24.028282,24.027107,24.024546,24.021215,24.016264,24.0114,24.004232,23.997692,23.988375,23.981155,23.970596,23.962791,23.950861,23.942019,23.928543,23.918379,23.902449,23.889233,23.870296,23.854074,23.834179,23.816507,23.796188,23.777142,23.760342,23.743383,23.729294,23.712347,23.698654,23.682121,23.671455,23.656212,23.644926,23.630524,23.621675,23.609438,23.60121,23.591257,23.584467,23.57446,23.56458,23.550215,23.535988,23.523497,23.511309,23.496826,23.48853,23.491587,23.496284,23.49623,23.514074,23.5825,23.580502,23.673693,21.03575
18.08192,24.25027,24.826982,24.001024,24.020933,24.020947,24.02299,24.014088,24.000715,23.97919,23.962122,23.946444,23.941254,23.936926,23.937613,23.940432,23.945383,23.95127,23.956722,23.96102,23.964838,23.968601,23.972822,23.976032,23.980373,23.98432,23.987808,23.988987,23.989178,23.988253,23.988209,23.988985,23.99004,23.991114,23.99366,23.996605,24.000515,24.00394,24.007029,24.009224,24.01083,24.012474,24.014305,24.01645,24.017845,24.019926,24.021675,24.024195,24.026043,24.028185,24.029325,24.031273,24.032759,24.033985,24.034239,24.034418,24.033794,24.03227,24.02944,24.02581,24.020596,24.015541,24.008186,24.0015,23.992014,23.98467,23.973995,23.966133,23.954145,23.945276,23.93182,23.921707,23.905897,23.89281,23.874104,23.858105,23.838469,23.821012,23.800915,23.782036,23.765366,23.748508,23.73451,23.71759,23.70387,23.687222,23.676443,23.660921,23.649374,23.634356,23.624905,23.611767,23.602835,23.591879,23.584314,23.573362,23.562864,23.548018,23.533676,23.521114,23.509304,23.495756,23.488111,23.49019,23.49624,23.500235,23.520525,23.585154,23.593975,23.703588,21.145771
18.073431,24.234695,24.81028,23.98727,24.010153,24.0134,24.01682,24.009174,23.99628,23.97556,23.959118,23.94437,23.93986,23.936396,23.93768,23.941265,23.946812,23.953362,23.959387,23.964268,23.968697,23.973047,23.97792,23.981632,23.986525,23.990824,23.994776,23.996286,23.996878,23.996178,23.996447,23.997421,23.998766,24.00004,24.002794,24.005877,24.009989,24.01359,24.016836,24.019152,24.020878,24.022652,24.024597,24.026863,24.028341,24.03051,24.032307,24.034883,24.036777,24.03885,24.039848,24.041521,24.042746,24.0436,24.043541,24.043266,24.042267,24.040392,24.037294,24.033358,24.027857,24.022587,24.015018,24.008165,23.998482,23.990984,23.98015,23.972206,23.960125,23.951202,23.937717,23.927622,23.91188,23.898897,23.880396,23.864609,23.845222,23.82798,23.808107,23.789408,23.77286,23.756086,23.742167,23.725258,23.711502,23.694689,23.68374,23.667866,23.656027,23.640352,23.630276,23.61617,23.60647,23.59449,23.586176,23.574272,23.56313,23.547745,23.533255,23.520624,23.509216,23.496672,23.489517,23.49015,23.497179,23.505337,23.52772,23.587523,23.607487,23.734522,21.268545
18.078146,24.218819,24.79304,23.975077,24.000624,24.006664,24.011215,24.004717,23.9924,23.972574,23.956804,23.943048,23.939272,23.936722,23.938627,23.942987,23.949112,23.956306,23.96286,23.968258,23.97321,23.97808,23.983536,23.987688,23.993084,23.997723,24.002129,24.003971,24.00496,24.004477,24.005064,24.006264,24.007923,24.009418,24.012411,24.015652,24.02001,24.023829,24.027279,24.02977,24.031677,24.03365,24.035763,24.038221,24.03985,24.042166,24.04405,24.04669,24.04861,24.050589,24.051434,24.0528,24.053732,24.054174,24.053772,24.053026,24.051643,24.049398,24.046015,24.041748,24.03595,24.030447,24.022654,24.015621,24.00573,23.998077,23.987076,23.979046,23.966862,23.957888,23.944359,23.934269,23.918581,23.905684,23.887365,23.871777,23.852615,23.835545,23.815853,23.797268,23.78079,23.764017,23.75009,23.733072,23.719194,23.702114,23.690924,23.674631,23.662468,23.646149,23.635496,23.62051,23.610128,23.59728,23.58836,23.575674,23.564014,23.548233,23.533686,23.521088,23.510103,23.498587,23.491669,23.490412,23.497787,23.509678,23.533653,23.588402,23.618305,23.76096,21.39036
18.076252,24.20267,24.777737,23.96524,23.992704,24.000538,24.005873,24.000256,23.988482,23.96944,23.954226,23.94134,23.938234,23.93654,23.939043,23.944136,23.95081,23.958652,23.965746,23.971657,23.97711,23.982466,23.98845,23.993013,23.998875,24.00383,24.00866,24.010817,24.012178,24.011917,24.012836,24.014273,24.01626,24.01798,24.02123,24.024637,24.029245,24.03328,24.036928,24.039604,24.041708,24.043892,24.046179,24.04885,24.050638,24.05311,24.055073,24.05776,24.059679,24.061552,24.062252,24.063316,24.063953,24.063984,24.063242,24.062048,24.0603,24.057676,24.05398,24.049385,24.04329,24.037558,24.02954,24.022327,24.012234,24.004435,23.993273,23.985151,23.972862,23.963818,23.95024,23.940145,23.924488,23.91166,23.893501,23.878096,23.859129,23.842203,23.822647,23.804127,23.787691,23.770874,23.75687,23.73966,23.725592,23.70819,23.69675,23.680037,23.667536,23.650618,23.639465,23.623764,23.612852,23.599295,23.589863,23.576572,23.564556,23.548532,23.534021,23.521511,23.510939,23.500488,23.49363,23.490147,23.497332,23.512451,23.53776,23.587954,23.626228,23.781952,21.498964
18.081818,24.186802,24.762857,23.957012,23.98557,23.99443,24.000456,23.99579,23.984707,23.96662,23.952045,23.940132,23.937756,23.93695,23.94004,23.945847,23.953043,23.961502,23.969116,23.975521,23.98147,23.987322,23.993864,23.998852,24.005207,24.010502,24.015787,24.018282,24.020046,24.020016,24.0213,24.023026,24.025394,24.027386,24.030954,24.034588,24.039518,24.04383,24.047739,24.050652,24.053007,24.055452,24.057945,24.060839,24.062807,24.065426,24.067455,24.070135,24.071997,24.073679,24.074179,24.074856,24.075136,24.074678,24.073553,24.071869,24.069736,24.066711,24.062696,24.05776,24.051367,24.045414,24.037188,24.029814,24.019552,24.01164,24.000372,23.9922,23.97988,23.970823,23.957266,23.947224,23.93166,23.918936,23.900984,23.885792,23.867043,23.850256,23.830814,23.81232,23.795898,23.778982,23.764845,23.747368,23.733046,23.715248,23.7035,23.686314,23.673466,23.655949,23.644308,23.627937,23.616556,23.60239,23.59254,23.57875,23.56647,23.550318,23.535955,23.523642,23.513578,23.504374,23.49747,23.491255,23.497822,23.516228,23.54281,23.588114,23.634077,23.801346,21.62101
18.091082,24.176487,24.752909,23.952065,23.980812,23.989994,23.99656,23.992714,23.982243,23.964987,23.950958,23.939816,23.93797,23.937786,23.94126,23.947517,23.95503,23.963861,23.971792,23.978498,23.984776,23.990976,23.99792,24.003214,24.009926,24.01547,24.021082,24.023811,24.025858,24.025978,24.027527,24.029465,24.032127,24.034334,24.038164,24.041994,24.047197,24.051746,24.055878,24.058983,24.061544,24.06419,24.066845,24.069885,24.07197,24.074669,24.076715,24.07935,24.081133,24.082628,24.08294,24.08329,24.083284,24.08245,24.081036,24.078983,24.076578,24.073277,24.069052,24.063892,24.057308,24.051216,24.042873,24.03541,24.025076,24.017113,24.005833,23.997686,23.985418,23.976416,23.962967,23.953022,23.937592,23.92498,23.907225,23.892199,23.873623,23.85694,23.837576,23.819101,23.802666,23.785673,23.771442,23.753775,23.739271,23.721182,23.709194,23.691654,23.678568,23.66062,23.648613,23.631746,23.620024,23.605438,23.595324,23.581194,23.568731,23.552523,23.538303,23.52618,23.516533,23.508274,23.501352,23.493132,23.49923,23.52003,23.547539,23.589218,23.64058,23.815538,21.718458
18.115343,24.16842,24.743156,23.947859,23.97642,23.985764,23.992878,23.989935,23.980143,23.96383,23.950443,23.940197,23.938955,23.939434,23.943272,23.949993,23.957827,23.967024,23.975266,23.982286,23.98894,23.995564,24.003014,24.008673,24.01583,24.021694,24.027727,24.030756,24.033152,24.033457,24.035326,24.037525,24.040545,24.04301,24.047152,24.051212,24.056746,24.061577,24.06597,24.069298,24.072096,24.07497,24.07778,24.080957,24.083153,24.085903,24.087942,24.090464,24.092117,24.09335,24.093414,24.093353,24.09299,24.091705,24.089966,24.087496,24.084791,24.081207,24.076794,24.071423,24.064667,24.058447,24.050013,24.0425,24.03213,24.024141,24.01288,24.004782,23.992613,23.983707,23.970423,23.960611,23.945372,23.932913,23.915419,23.900621,23.882267,23.865707,23.84643,23.827951,23.811493,23.794384,23.780008,23.762094,23.747377,23.72895,23.716682,23.6988,23.685513,23.667212,23.654911,23.637644,23.62566,23.610811,23.60057,23.586206,23.573616,23.557446,23.543476,23.531647,23.52254,23.515478,23.508501,23.497732,23.503126,23.526796,23.555386,23.592905,23.648603,23.829184,21.833529
18.14033,24.165747,24.737806,23.94591,23.974249,23.983683,23.991049,23.988575,23.979174,23.96343,23.950453,23.940783,23.939941,23.940832,23.944874,23.951881,23.959929,23.969345,23.977772,23.984995,23.991907,23.998842,24.006657,24.012577,24.020048,24.026154,24.032501,24.035748,24.038385,24.038815,24.0409,24.04327,24.046522,24.049147,24.053484,24.057684,24.06342,24.068428,24.072977,24.076439,24.079382,24.08238,24.085264,24.088512,24.090765,24.093536,24.095556,24.097984,24.099545,24.10059,24.100494,24.10015,24.099548,24.097967,24.096022,24.093292,24.090403,24.086664,24.08216,24.076685,24.069847,24.063566,24.055103,24.047586,24.037216,24.02922,24.017971,24.009893,23.997786,23.988943,23.97576,23.966034,23.950922,23.938566,23.92127,23.906645,23.888456,23.871986,23.852774,23.834291,23.81782,23.800623,23.786135,23.76804,23.753176,23.734537,23.722092,23.704025,23.690659,23.672226,23.659822,23.642416,23.630348,23.615473,23.605276,23.590864,23.578243,23.56217,23.548422,23.536835,23.528133,23.521944,23.514917,23.502268,23.507097,23.532793,23.562143,23.59696,23.654188,23.836262,21.909594
18.17488,24.163185,24.731024,23.943214,23.97124,23.981049,23.989077,23.987488,23.978607,23.963608,23.95115,23.942211,23.941864,23.94324,23.9475,23.954815,23.963085,23.97275,23.981411,23.988886,23.996143,24.00348,24.01178,24.018047,24.02596,24.032408,24.039213,24.04279,24.04582,24.046469,24.04893,24.051592,24.055223,24.05811,24.06275,24.06717,24.073221,24.078499,24.083294,24.086967,24.090145,24.093351,24.096355,24.099688,24.102,24.10475,24.106703,24.108936,24.11031,24.11103,24.11068,24.109913,24.108967,24.106955,24.104715,24.101616,24.098463,24.094501,24.08987,24.084246,24.0773,24.070938,24.062435,24.054926,24.04458,24.036585,24.025383,24.017365,24.005386,23.996668,23.983671,23.974085,23.959179,23.946983,23.929945,23.915537,23.89754,23.881155,23.861979,23.84344,23.826899,23.809536,23.794863,23.776503,23.761429,23.742512,23.729845,23.711594,23.698183,23.679672,23.667206,23.649736,23.637648,23.622831,23.612726,23.598284,23.585611,23.569641,23.556133,23.5448,23.536564,23.531445,23.524328,23.509298,23.51342,23.54175,23.571991,23.60322,23.661802,23.844955,22.006752
18.196087,24.1617,24.72668,23.941261,23.969086,23.979313,23.988031,23.987223,23.978708,23.96421,23.952085,23.943613,23.943579,23.945251,23.949629,23.957106,23.965487,23.975298,23.98411,23.991749,23.999239,24.006844,24.015463,24.021967,24.03019,24.036882,24.044027,24.047852,24.0512,24.052044,24.05482,24.057732,24.061678,24.064764,24.069654,24.074247,24.080547,24.08604,24.091026,24.09487,24.098248,24.101627,24.104738,24.10813,24.110464,24.113169,24.115051,24.117107,24.118303,24.11875,24.118189,24.117102,24.115906,24.113575,24.11111,24.107733,24.104393,24.100267,24.095533,24.089802,24.082773,24.076359,24.067837,24.060335,24.050013,24.042027,24.030874,24.022919,24.011066,24.002455,23.98962,23.980154,23.965414,23.953339,23.936476,23.922197,23.904312,23.887953,23.868763,23.850143,23.83351,23.815998,23.801167,23.782602,23.767372,23.748264,23.73546,23.717115,23.70371,23.685202,23.672739,23.65529,23.643236,23.628504,23.618464,23.604002,23.591274,23.575335,23.561941,23.550718,23.542734,23.53828,23.531078,23.514475,23.518145,23.54824,23.579023,23.607824,23.666973,23.850477,22.069195
18.256008,24.16271,24.719164,23.937832,23.965294,23.976538,23.98653,23.986984,23.978874,23.965033,23.953407,23.945526,23.945816,23.947762,23.952211,23.959824,23.968307,23.97822,23.987162,23.994984,24.002777,24.010738,24.0198,24.026613,24.035248,24.042265,24.049866,24.054028,24.057793,24.05887,24.06204,24.065268,24.069618,24.072975,24.078176,24.082983,24.089594,24.095352,24.10058,24.10462,24.108223,24.111778,24.114979,24.118395,24.12073,24.123348,24.125126,24.126951,24.127934,24.128061,24.127256,24.125797,24.124321,24.121609,24.118866,24.115133,24.111536,24.107195,24.102325,24.096434,24.089285,24.082787,24.074232,24.066742,24.056454,24.048485,24.037405,24.029537,24.017853,24.009388,23.996769,23.987461,23.972937,23.961016,23.944372,23.930256,23.912523,23.896221,23.877062,23.8584,23.841702,23.824068,23.809116,23.790388,23.775034,23.755743,23.742765,23.724344,23.711018,23.692608,23.680208,23.66288,23.65094,23.636494,23.626719,23.612394,23.5997,23.583933,23.57079,23.55982,23.552206,23.548443,23.541325,23.523514,23.526997,23.55886,23.589891,23.615496,23.67522,23.858505,22.158924
18.32076,24.16558,24.7127,23.934885,23.96206,23.974373,23.985497,23.986965,23.979061,23.965643,23.954395,23.946886,23.947317,23.949364,23.953802,23.961452,23.969975,23.97989,23.988869,23.99679,24.004784,24.012987,24.022348,24.029366,24.038269,24.045504,24.053408,24.057798,24.061834,24.06307,24.066486,24.06991,24.074522,24.07806,24.083466,24.088404,24.095207,24.101124,24.106504,24.110662,24.114388,24.11802,24.121243,24.124638,24.126947,24.129486,24.131174,24.132849,24.133703,24.13364,24.132702,24.13104,24.129412,24.126486,24.123571,24.119608,24.115843,24.111357,24.106401,24.100391,24.093153,24.086592,24.078014,24.070534,24.060276,24.05232,24.0413,24.033491,24.021927,24.013565,24.001095,23.991894,23.977509,23.965687,23.94918,23.935163,23.917524,23.901278,23.882177,23.863537,23.84683,23.829168,23.814201,23.795448,23.78008,23.760725,23.747639,23.729214,23.715994,23.697731,23.685427,23.66826,23.656458,23.642334,23.632872,23.618761,23.606165,23.590607,23.577694,23.56696,23.559603,23.556131,23.549208,23.531298,23.534992,23.56754,23.598349,23.621887,23.68183,23.864412,22.222582
18.42358,24.167679,24.700985,23.930239,23.957537,23.97171,23.98434,23.987167,23.979572,23.966774,23.95607,23.949156,23.949894,23.952248,23.95682,23.964695,23.973396,23.983473,23.992615,24.000778,24.00911,24.01767,24.02744,24.03474,24.044012,24.051544,24.05987,24.064571,24.068995,24.070452,24.07424,24.077944,24.082933,24.08673,24.092422,24.097551,24.104633,24.110786,24.116396,24.120743,24.124657,24.128424,24.131699,24.135073,24.137342,24.139751,24.141314,24.14275,24.143398,24.143053,24.141924,24.139977,24.138138,24.13491,24.131763,24.127506,24.123526,24.118856,24.113781,24.10763,24.100286,24.093668,24.085093,24.077639,24.067446,24.059534,24.048624,24.040922,24.02954,24.02132,24.009052,23.99999,23.985792,23.9741,23.95777,23.943884,23.926373,23.910204,23.891178,23.872562,23.855843,23.838137,23.823135,23.804335,23.788935,23.769493,23.756287,23.737877,23.724812,23.706755,23.694588,23.677654,23.66605,23.652348,23.643263,23.629395,23.61687,23.601515,23.588814,23.578274,23.571098,23.567764,23.561071,23.543442,23.547485,23.580393,23.610558,23.631512,23.692247,23.874737,22.30453
18.517546,24.16823,24.689608,23.926199,23.953955,23.969814,23.983494,23.98727,23.979916,23.967592,23.957304,23.950878,23.95189,23.954575,23.959343,23.967493,23.976416,23.986708,23.99604,24.004452,24.013077,24.021917,24.031988,24.039497,24.049042,24.0568,24.065441,24.070374,24.075089,24.076723,24.080797,24.08472,24.09,24.093988,24.099907,24.10519,24.112486,24.118826,24.124622,24.129128,24.1332,24.13707,24.14039,24.143744,24.145973,24.148273,24.149736,24.150982,24.151463,24.150902,24.149637,24.147497,24.145517,24.142084,24.13878,24.134333,24.130217,24.125422,24.120264,24.114016,24.106607,24.099962,24.091398,24.083973,24.073841,24.065985,24.055191,24.047594,24.036371,24.028275,24.016172,24.007223,23.99317,23.981579,23.96538,23.951588,23.934183,23.918085,23.899132,23.88056,23.863853,23.846142,23.831146,23.812346,23.796946,23.777493,23.764236,23.745901,23.732983,23.715132,23.703108,23.686403,23.675,23.661646,23.652859,23.639189,23.626732,23.611513,23.59892,23.588453,23.58131,23.577879,23.571367,23.554356,23.558792,23.59152,23.620981,23.64032,23.701721,23.884172,22.361355
18.634615,24.167582,24.674372,23.92064,23.94908,23.966854,23.981434,23.986101,23.979084,23.967337,23.957516,23.951633,23.952951,23.956003,23.961,23.969467,23.978634,23.98916,23.998707,24.007393,24.016356,24.025536,24.035984,24.043734,24.053612,24.061655,24.070692,24.075909,24.08098,24.082823,24.087248,24.09145,24.097095,24.101336,24.107569,24.113081,24.120678,24.12727,24.133316,24.13803,24.142313,24.146332,24.149712,24.153046,24.155235,24.157415,24.158766,24.159796,24.160086,24.159279,24.157862,24.155525,24.153412,24.149775,24.146309,24.141665,24.13741,24.13248,24.127222,24.120844,24.113335,24.106644,24.098078,24.090666,24.080608,24.07283,24.062212,24.054787,24.043816,24.035904,24.024063,24.015299,24.001484,23.990042,23.974035,23.960373,23.943132,23.927155,23.908329,23.889849,23.873207,23.85556,23.840641,23.821943,23.806614,23.787252,23.774029,23.7559,23.743242,23.725758,23.713991,23.697699,23.686632,23.673822,23.665474,23.652197,23.63995,23.625013,23.612635,23.602333,23.595312,23.591932,23.58568,23.569168,23.574097,23.607046,23.636118,23.653816,23.71525,23.89619,22.429047
18.741404,24.167023,24.661346,23.917025,23.945864,23.964806,23.979666,23.984705,23.977928,23.966585,23.957092,23.95159,23.953133,23.956493,23.961712,23.97047,23.979856,23.990614,24.00036,24.009293,24.018536,24.027994,24.038744,24.046684,24.05683,24.065105,24.07445,24.079887,24.085226,24.087229,24.091919,24.096329,24.10224,24.106663,24.113132,24.118818,24.12663,24.133394,24.139618,24.144476,24.14891,24.153027,24.15644,24.159756,24.161917,24.164019,24.16529,24.16618,24.166348,24.16539,24.163881,24.161438,24.159264,24.155516,24.151957,24.147202,24.142868,24.137854,24.132523,24.126043,24.11846,24.111725,24.103148,24.095722,24.085712,24.078003,24.067545,24.060274,24.049534,24.04178,24.030186,24.021605,24.00802,23.996733,23.980923,23.967405,23.950348,23.934532,23.915878,23.897558,23.881046,23.863554,23.848782,23.830265,23.815073,23.79589,23.782778,23.76491,23.752514,23.735413,23.723915,23.708055,23.697329,23.685026,23.67707,23.664204,23.652208,23.637558,23.625366,23.615204,23.608288,23.604984,23.598932,23.582695,23.588032,23.621342,23.650423,23.667313,23.727749,23.90563,22.477457
18.867842,24.169582,24.649748,23.916004,23.944515,23.964006,23.978975,23.984211,23.977562,23.966536,23.957354,23.95221,23.953957,23.957636,23.96311,23.972206,23.981869,23.992908,24.002914,24.012157,24.021736,24.031502,24.042572,24.050735,24.061161,24.06967,24.07931,24.084948,24.090542,24.092697,24.097614,24.102194,24.108326,24.112894,24.119545,24.125349,24.133297,24.14016,24.146494,24.151443,24.155968,24.16014,24.163555,24.166845,24.168993,24.171047,24.172268,24.173069,24.173164,24.172129,24.17058,24.168072,24.16585,24.162016,24.158377,24.15352,24.149101,24.143993,24.138577,24.132002,24.124332,24.11755,24.108948,24.1015,24.091518,24.083862,24.073528,24.066378,24.055824,24.04822,24.03685,24.028439,24.015085,24.003963,23.98839,23.975073,23.95827,23.94268,23.92429,23.906212,23.88991,23.872635,23.858051,23.839745,23.824713,23.8057,23.79267,23.775007,23.762821,23.746044,23.734787,23.719307,23.708883,23.697035,23.689438,23.676947,23.665192,23.650787,23.638735,23.628674,23.621813,23.618536,23.612597,23.596546,23.60219,23.635838,23.664858,23.681015,23.739168,23.911957,22.521767
18.985987,24.172142,24.640512,23.91786,23.945705,23.964983,23.97958,23.984606,23.977997,23.96714,23.958153,23.953262,23.955198,23.959206,23.964977,23.97444,23.984394,23.99576,24.006054,24.015621,24.025518,24.035532,24.046848,24.0552,24.065868,24.074577,24.084465,24.090256,24.09606,24.09836,24.103449,24.108124,24.114355,24.118963,24.125662,24.13148,24.139412,24.146238,24.152555,24.157495,24.162016,24.166155,24.169514,24.172733,24.174856,24.176853,24.17802,24.178751,24.178797,24.177717,24.176151,24.173603,24.171343,24.16746,24.163782,24.158882,24.154432,24.14928,24.14383,24.137228,24.129545,24.122746,24.11413,24.106642,24.096666,24.089046,24.078794,24.071714,24.061293,24.053802,24.042637,24.034393,24.021275,24.010332,23.995033,23.981958,23.965462,23.950155,23.932081,23.914305,23.898285,23.881302,23.866959,23.848934,23.834122,23.815378,23.802519,23.785158,23.77323,23.756845,23.745884,23.730835,23.720726,23.7093,23.701998,23.689844,23.678297,23.664091,23.652132,23.642115,23.635256,23.631975,23.626081,23.61006,23.61598,23.650064,23.679516,23.69579,23.751724,23.919233,22.555124
19.078629,24.171827,24.632225,23.92015,23.947657,23.966564,23.980558,23.9852,23.978678,23.96795,23.959076,23.954397,23.956535,23.960888,23.966976,23.976799,23.987026,23.99871,24.009283,24.019142,24.029285,24.03947,24.05095,24.059433,24.07029,24.079165,24.089256,24.095179,24.101171,24.10361,24.10885,24.113592,24.119852,24.124435,24.1311,24.136875,24.144714,24.15144,24.157675,24.16255,24.167017,24.171085,24.174349,24.177454,24.179504,24.181395,24.182468,24.183067,24.183027,24.181847,24.180231,24.177603,24.175283,24.171349,24.167656,24.162762,24.15834,24.153206,24.147787,24.141245,24.133623,24.126879,24.118282,24.110775,24.100798,24.093225,24.08305,24.076023,24.065714,24.058323,24.047354,24.039293,24.02641,24.015644,24.000603,23.987762,23.97156,23.956514,23.93871,23.921185,23.905418,23.888712,23.874609,23.856886,23.842308,23.823914,23.811335,23.794422,23.78284,23.766972,23.75638,23.741844,23.732092,23.721087,23.71404,23.70218,23.690805,23.676779,23.664911,23.654924,23.648067,23.644827,23.63899,23.6229,23.629158,23.663841,23.6943,23.711359,23.766573,23.9308,22.584831
19.163845,24.170752,24.624807,23.923841,23.951038,23.969324,23.982494,23.986565,23.980085,23.969416,23.960579,23.95605,23.958384,23.963099,23.969536,23.979729,23.990232,24.002264,24.013134,24.023298,24.03368,24.043997,24.055607,24.064217,24.075274,24.08433,24.094643,24.100693,24.106895,24.109507,24.114899,24.11968,24.125912,24.130396,24.136946,24.14261,24.150257,24.156797,24.162865,24.167614,24.171976,24.175928,24.179064,24.18203,24.184,24.185778,24.186743,24.18721,24.187082,24.1858,24.184135,24.181417,24.179028,24.175034,24.171333,24.166456,24.162073,24.156963,24.15158,24.14512,24.137589,24.130898,24.122303,24.114738,24.104725,24.097174,24.087029,24.080004,24.06976,24.062452,24.051672,24.043802,24.031172,24.020603,24.005873,23.993307,23.977457,23.962725,23.945253,23.928055,23.912619,23.896269,23.882467,23.865126,23.850845,23.832901,23.820673,23.804302,23.79313,23.777876,23.76774,23.753815,23.744469,23.733923,23.727137,23.71558,23.70437,23.690496,23.67867,23.668661,23.661745,23.658463,23.652668,23.636593,23.643248,23.678417,23.71012,23.728518,23.783731,23.945513,22.610844
19.223158,24.170334,24.6201,23.927032,23.95399,23.971739,23.984232,23.98779,23.98129,23.970577,23.961708,23.957216,23.959637,23.96456,23.971218,23.981636,23.992311,24.004574,24.015661,24.026031,24.036583,24.047003,24.05872,24.067434,24.078657,24.087864,24.098358,24.104511,24.110874,24.11362,24.119122,24.123926,24.13012,24.134516,24.14097,24.146538,24.15402,24.160398,24.166328,24.170973,24.175247,24.179108,24.18215,24.185024,24.186954,24.18867,24.189573,24.189966,24.189793,24.188465,24.186779,24.184006,24.181566,24.177532,24.173817,24.16893,24.164547,24.159414,24.154018,24.147583,24.14007,24.133373,24.124725,24.11708,24.106995,24.099426,24.08926,24.082203,24.071972,24.064701,24.054047,24.046314,24.033869,24.023449,24.008965,23.996626,23.981054,23.966578,23.949387,23.932476,23.91732,23.901285,23.887726,23.870693,23.856663,23.839056,23.827076,23.81108,23.800194,23.785381,23.77558,23.7621,23.753044,23.742834,23.73624,23.724909,23.713825,23.700031,23.688189,23.67812,23.671114,23.667713,23.661936,23.646,23.652987,23.688362,23.720888,23.740345,23.79567,23.955816,22.627739
19.284044,24.170319,24.615505,23.93068,23.957386,23.97478,23.9869,23.990213,23.983732,23.973076,23.964272,23.959942,23.96254,23.9678,23.974781,23.985518,23.996414,24.00897,24.020317,24.030943,24.04168,24.052176,24.063982,24.07282,24.08425,24.093634,24.10435,24.110619,24.117203,24.120155,24.125816,24.130642,24.136784,24.141066,24.147388,24.15283,24.160086,24.166245,24.171995,24.176512,24.180677,24.184435,24.187387,24.190191,24.192099,24.193773,24.194622,24.194956,24.194754,24.19339,24.191685,24.188835,24.186316,24.182224,24.178493,24.173603,24.169214,24.16405,24.158642,24.152273,24.144829,24.138144,24.129457,24.121733,24.111578,24.104004,24.093805,24.08669,24.076443,24.069204,24.058657,24.051048,24.038784,24.02852,24.014307,24.002241,23.98699,23.97282,23.955996,23.939465,23.924675,23.909018,23.895742,23.879057,23.865318,23.848087,23.836351,23.820742,23.81015,23.795841,23.786444,23.773483,23.764755,23.754929,23.748552,23.737488,23.726551,23.712856,23.700989,23.69084,23.68369,23.680069,23.674292,23.658707,23.66594,23.701046,23.73401,23.754532,23.810228,23.969412,22.642065
19.322184,24.17043,24.612442,23.9327,23.959257,23.976692,23.988955,23.992441,23.986044,23.97556,23.966911,23.962824,23.96562,23.971209,23.97847,23.989483,24.000557,24.013336,24.024858,24.03567,24.046522,24.057032,24.068863,24.07778,24.089342,24.098846,24.109707,24.116053,24.122816,24.125942,24.131744,24.136591,24.14271,24.146921,24.153156,24.158506,24.165598,24.1716,24.177235,24.181675,24.185768,24.18948,24.192408,24.195208,24.197132,24.198809,24.199642,24.199966,24.19977,24.198397,24.196674,24.193764,24.19117,24.187027,24.183294,24.178387,24.173994,24.168806,24.163403,24.157114,24.14976,24.14311,24.13442,24.126665,24.116486,24.108925,24.09871,24.091545,24.081266,24.07403,24.063526,24.055971,24.0438,24.033627,24.019577,24.007679,23.99264,23.978674,23.962112,23.945856,23.931324,23.915907,23.902798,23.886309,23.872742,23.85572,23.844107,23.828701,23.818275,23.804283,23.795168,23.782549,23.774038,23.764467,23.758244,23.747374,23.736555,23.722952,23.711092,23.700901,23.693642,23.689835,23.68404,23.668821,23.676092,23.710629,23.743437,23.764471,23.82047,23.979525,22.648531
19.359196,24.172144,24.610863,23.936,23.962318,23.9798,23.992315,23.996038,23.989681,23.979362,23.970903,23.967115,23.970163,23.976168,23.98378,23.995155,24.006474,24.019543,24.031307,24.04236,24.053375,24.063936,24.075836,24.08488,24.096643,24.106323,24.11739,24.123842,24.130825,24.134165,24.14012,24.144968,24.151016,24.155107,24.161196,24.166409,24.173277,24.179062,24.184517,24.188828,24.192793,24.196388,24.199236,24.20196,24.203836,24.205437,24.206192,24.206432,24.206194,24.204765,24.203009,24.200014,24.197351,24.193172,24.189459,24.184587,24.180237,24.17506,24.16969,24.163528,24.156313,24.149734,24.141077,24.133324,24.123161,24.115662,24.105476,24.098284,24.08801,24.08082,24.070393,24.062914,24.050873,24.040821,24.026987,24.015306,24.000528,23.98683,23.970625,23.95475,23.94058,23.925526,23.912683,23.896526,23.88326,23.866589,23.855183,23.840096,23.829918,23.816368,23.80762,23.795431,23.787159,23.777864,23.771776,23.761084,23.75035,23.736786,23.724863,23.714573,23.707146,23.703093,23.697277,23.682497,23.68983,23.723715,23.756315,23.777874,23.834614,23.994389,22.655186
19.37465,24.174326,24.611498,23.93865,23.964762,23.982239,23.994951,23.998812,23.992428,23.982164,23.973812,23.9702,23.9734,23.97966,23.98749,23.9991,24.010582,24.023844,24.035765,24.046978,24.05811,24.068727,24.080702,24.089848,24.101763,24.111574,24.122787,24.129314,24.136435,24.139893,24.145924,24.150757,24.156734,24.160719,24.166687,24.171793,24.178497,24.18414,24.18946,24.193659,24.197514,24.201002,24.203756,24.206377,24.208176,24.209663,24.21032,24.210445,24.210148,24.208654,24.206861,24.203817,24.201126,24.196953,24.193277,24.188467,24.184183,24.179043,24.173717,24.167656,24.160553,24.15404,24.145433,24.137703,24.127588,24.120153,24.110025,24.102842,24.092615,24.085474,24.075125,24.067703,24.055761,24.0458,24.032108,24.02057,24.005962,23.99244,23.976477,23.96087,23.946959,23.932184,23.919556,23.903685,23.890675,23.874304,23.86308,23.84826,23.838278,23.825047,23.816551,23.804636,23.796497,23.787336,23.781303,23.770662,23.75993,23.746315,23.734295,23.723896,23.716345,23.71212,23.706293,23.69178,23.699202,23.732758,23.76527,23.7871,23.844597,24.005463,22.658623
19.392529,24.179207,24.614256,23.943323,23.969223,23.986713,23.999573,24.003521,23.997072,23.986832,23.978577,23.975163,23.978567,23.985146,23.993256,24.00519,24.016926,24.030504,24.042696,24.05416,24.065495,24.07624,24.088373,24.097689,24.10983,24.119818,24.131218,24.137844,24.145124,24.148727,24.154846,24.159658,24.165554,24.169426,24.17526,24.18025,24.186773,24.192234,24.197376,24.201387,24.205051,24.20833,24.210918,24.213327,24.214954,24.216204,24.216677,24.21659,24.21617,24.214521,24.212639,24.209488,24.206749,24.202572,24.19894,24.1942,24.189981,24.184885,24.179607,24.17365,24.166662,24.160221,24.15169,24.144018,24.13401,24.126688,24.116676,24.109547,24.099417,24.092361,24.082104,24.074724,24.062887,24.053032,24.03951,24.028135,24.013725,24.000423,23.984785,23.969542,23.955957,23.941523,23.92916,23.913626,23.900925,23.884888,23.873829,23.85926,23.849468,23.836576,23.828365,23.816746,23.808746,23.799751,23.793802,23.783274,23.772598,23.758991,23.746918,23.73645,23.728819,23.724531,23.718662,23.7042,23.711464,23.744608,23.776913,23.798866,23.857203,24.01945,22.663141
19.40158,24.184126,24.617754,23.947382,23.97319,23.990696,24.003557,24.00747,24.000956,23.990692,23.98246,23.979153,23.982689,23.989468,23.997757,24.009916,24.021847,24.03568,24.048098,24.059757,24.071259,24.082136,24.09442,24.103874,24.116188,24.126286,24.137808,24.144497,24.15187,24.155546,24.161705,24.166502,24.17235,24.17616,24.181925,24.18685,24.19327,24.19862,24.20363,24.207493,24.210989,24.214075,24.216515,24.218727,24.220184,24.221209,24.221523,24.221243,24.220707,24.218912,24.216938,24.213696,24.21092,24.206732,24.203133,24.19843,24.194248,24.189178,24.183924,24.178013,24.171074,24.164665,24.156185,24.148571,24.138666,24.13143,24.12153,24.11446,24.10442,24.097431,24.087223,24.07985,24.068058,24.058264,24.044838,24.033554,24.019258,24.00609,23.990677,23.975687,23.962309,23.94808,23.93588,23.920555,23.908037,23.892174,23.881172,23.866693,23.856976,23.844236,23.836168,23.824688,23.816748,23.807835,23.801943,23.7915,23.780888,23.767319,23.75525,23.744781,23.737158,23.732944,23.72702,23.712355,23.719309,23.752216,23.784311,23.80615,23.86492,24.028048,22.666042
19.417788,24.191881,24.623045,23.95352,23.979284,23.996746,24.009327,24.012976,24.006382,23.996101,23.987928,23.984783,23.98851,23.995592,24.004156,24.016653,24.028866,24.04305,24.055765,24.0677,24.079432,24.09049,24.102978,24.112623,24.125156,24.135414,24.14709,24.153854,24.161331,24.165087,24.17127,24.176018,24.181751,24.185432,24.191032,24.195808,24.202011,24.207138,24.2119,24.215504,24.21873,24.22154,24.223764,24.22573,24.226995,24.227783,24.22793,24.227467,24.226843,24.22493,24.222893,24.21959,24.216803,24.212643,24.2091,24.204466,24.200336,24.195293,24.190044,24.184158,24.177238,24.170828,24.162352,24.154753,24.144884,24.13769,24.127823,24.120756,24.110735,24.103771,24.093557,24.086157,24.074413,24.064724,24.051464,24.040361,24.026289,24.013382,23.99835,23.983772,23.970737,23.95685,23.944931,23.929924,23.917683,23.902071,23.891161,23.876804,23.867174,23.854599,23.846678,23.8353,23.82736,23.81842,23.81247,23.801973,23.791298,23.777613,23.765406,23.754787,23.74705,23.742846,23.736805,23.721846,23.728422,23.76108,23.792965,23.814661,23.873821,24.037619,22.671213
19.432535,24.199026,24.628162,23.959332,23.984987,24.00224,24.014387,24.017681,24.01102,24.000729,23.992605,23.989597,23.993483,24.00082,24.009613,24.0224,24.034857,24.049326,24.062283,24.074429,24.086338,24.09754,24.11018,24.119955,24.132637,24.142992,24.154762,24.161566,24.16908,24.172861,24.17902,24.183706,24.189316,24.192871,24.198301,24.202923,24.208914,24.213833,24.218359,24.221727,24.224714,24.227285,24.229328,24.231108,24.232239,24.232876,24.232918,24.232357,24.231695,24.229748,24.22769,24.224386,24.221619,24.217503,24.214012,24.209438,24.205349,24.200321,24.195057,24.18915,24.182196,24.175743,24.16722,24.159588,24.149677,24.142458,24.132547,24.125435,24.115358,24.10837,24.098104,24.09066,24.078945,24.069342,24.056229,24.045288,24.03143,24.018757,24.004051,23.989813,23.977064,23.963457,23.95177,23.937027,23.924997,23.909563,23.898716,23.884424,23.874838,23.862328,23.854456,23.843063,23.835049,23.825962,23.819857,23.80918,23.798338,23.784418,23.771984,23.761139,23.753227,23.749,23.742785,23.727417,23.733614,23.766214,23.797918,23.81926,23.878418,24.042315,22.676497
19.452301,24.20876,24.636097,23.968645,23.993624,24.010118,24.021767,24.024632,24.017841,24.007492,23.999424,23.996593,24.000696,24.008377,24.017483,24.030687,24.043503,24.058393,24.071692,24.084127,24.09625,24.107624,24.120424,24.130327,24.143124,24.153543,24.165361,24.172176,24.179684,24.183447,24.189524,24.19411,24.199547,24.202936,24.208149,24.212587,24.218334,24.223013,24.227266,24.230352,24.233051,24.235317,24.237131,24.238655,24.239595,24.24001,24.239906,24.239193,24.23846,24.236443,24.23436,24.231056,24.228317,24.224268,24.220848,24.216358,24.212324,24.207315,24.202034,24.196096,24.189093,24.182592,24.174015,24.166346,24.156395,24.149149,24.139196,24.13205,24.121937,24.114933,24.104645,24.097187,24.085545,24.076067,24.063133,24.052376,24.038746,24.026323,24.011963,23.998087,23.985628,23.972317,23.960905,23.946476,23.934698,23.919483,23.908707,23.89449,23.884949,23.87249,23.864653,23.85319,23.845041,23.835724,23.829384,23.818398,23.807262,23.792957,23.780167,23.768972,23.760794,23.756618,23.749958,23.733398,23.738752,23.771713,23.803106,23.823175,23.881983,24.046253,22.68423
19.473366,24.21733,24.643677,23.978415,24.00232,24.017712,24.02896,24.031534,24.024683,24.014345,24.00636,24.003733,24.008066,24.016088,24.025496,24.039091,24.052238,24.067526,24.08113,24.093798,24.106068,24.117561,24.13045,24.140408,24.153225,24.163637,24.175425,24.18221,24.189657,24.19336,24.19932,24.203814,24.209084,24.21233,24.217356,24.221638,24.22718,24.231667,24.23569,24.238523,24.240963,24.24295,24.244547,24.245832,24.24659,24.246798,24.246553,24.24569,24.244871,24.242767,24.240646,24.237316,24.234585,24.23056,24.227175,24.22273,24.218718,24.21371,24.208391,24.202398,24.19532,24.188763,24.180117,24.172401,24.162392,24.155104,24.145102,24.137926,24.127777,24.120749,24.110434,24.102968,24.091389,24.082014,24.069223,24.058598,24.04514,24.032902,24.018797,24.005175,23.992907,23.9798,23.968582,23.95438,23.94279,23.927713,23.916962,23.90277,23.893253,23.880798,23.872948,23.861378,23.853086,23.843525,23.836948,23.825623,23.814169,23.799458,23.786297,23.774733,23.76627,23.762096,23.754993,23.737356,23.741842,23.775005,23.805714,23.8241,23.882055,24.046076,22.694357
19.49826,24.225697,24.65149,23.989481,24.011885,24.025776,24.03664,24.039062,24.032305,24.022133,24.01428,24.01194,24.016554,24.024988,24.034737,24.048742,24.06221,24.077896,24.091808,24.104696,24.117098,24.128693,24.141644,24.15165,24.164478,24.174868,24.186605,24.193367,24.200752,24.204397,24.210262,24.214666,24.219803,24.222939,24.227806,24.231943,24.237288,24.241562,24.245338,24.247889,24.250023,24.251673,24.253006,24.254007,24.254559,24.254524,24.254103,24.253046,24.252129,24.249893,24.247696,24.244276,24.2415,24.237442,24.234062,24.229616,24.225597,24.220566,24.2152,24.209135,24.201965,24.195326,24.186598,24.178827,24.168753,24.16141,24.151344,24.144129,24.133924,24.12685,24.116463,24.108946,24.097383,24.088083,24.075396,24.064882,24.051588,24.039541,24.0257,24.012339,24.000265,23.987347,23.97631,23.96231,23.950878,23.935902,23.925148,23.910952,23.901451,23.889004,23.881144,23.869495,23.861082,23.851324,23.844547,23.832933,23.821194,23.806128,23.792612,23.780676,23.77189,23.767548,23.76021,23.742369,23.7462,23.7786,23.807903,23.824738,23.881546,24.044352,22.709047
19.534029,24.232512,24.656904,23.99988,24.02104,24.033773,24.044466,24.046986,24.040478,24.030664,24.023066,24.021145,24.026093,24.034996,24.045109,24.059523,24.073278,24.089312,24.10346,24.1165,24.128946,24.14056,24.153482,24.163462,24.176216,24.186523,24.198158,24.204859,24.212132,24.215687,24.221418,24.225721,24.230707,24.233717,24.238405,24.242378,24.247496,24.25154,24.255047,24.257301,24.259129,24.260447,24.261513,24.262243,24.262617,24.262354,24.261759,24.260485,24.25943,24.256998,24.25467,24.25106,24.24815,24.24395,24.240484,24.23594,24.231844,24.226719,24.221245,24.215054,24.207748,24.20099,24.192139,24.184286,24.17411,24.166687,24.156534,24.149271,24.138987,24.131847,24.12138,24.113815,24.102264,24.093033,24.080444,24.070044,24.056917,24.04506,24.031464,24.018326,24.006401,23.993608,23.982689,23.968801,23.957447,23.94249,23.931671,23.917421,23.907907,23.895443,23.887568,23.875835,23.867317,23.857372,23.8504,23.838491,23.826458,23.811024,23.797148,23.784815,23.775696,23.771101,23.763687,23.746202,23.749577,23.78077,23.808151,23.8232,23.878105,24.038282,22.729034
19.575829,24.238071,24.659784,24.008192,24.02878,24.041073,24.051725,24.054436,24.048199,24.038815,24.031555,24.03011,24.035414,24.044811,24.055288,24.070112,24.084146,24.10048,24.114803,24.127953,24.140396,24.151976,24.164806,24.174702,24.187326,24.197529,24.209015,24.21561,24.22272,24.226143,24.231686,24.235847,24.240604,24.243422,24.247843,24.251587,24.25641,24.260178,24.26337,24.265327,24.266865,24.267902,24.268751,24.269272,24.269526,24.269106,24.26838,24.266918,24.26572,24.26309,24.260618,24.256792,24.25372,24.249311,24.245705,24.241003,24.236794,24.231499,24.22586,24.219492,24.21201,24.205097,24.196089,24.1881,24.177773,24.170244,24.159964,24.15262,24.142227,24.135017,24.124485,24.116909,24.105408,24.096273,24.083834,24.073587,24.060675,24.049026,24.035686,24.022764,24.010983,23.998291,23.987465,23.973642,23.962328,23.94734,23.936436,23.922102,23.91256,23.900055,23.892153,23.88032,23.871681,23.861515,23.854313,23.842062,23.829681,23.813826,23.799555,23.786808,23.77737,23.77258,23.76509,23.747795,23.750813,23.781237,23.807041,23.820307,23.873114,24.030302,22.748446
19.633324,24.24255,24.659645,24.015558,24.036314,24.04904,24.059978,24.063143,24.05725,24.048416,24.04158,24.040695,24.046366,24.056267,24.067095,24.082298,24.096558,24.11312,24.127533,24.140705,24.153059,24.164524,24.177183,24.186932,24.199371,24.209446,24.22077,24.227259,24.234207,24.23751,24.242886,24.246933,24.251492,24.254137,24.258331,24.261879,24.266447,24.269974,24.272884,24.27456,24.275837,24.276615,24.277246,24.27755,24.277674,24.277061,24.276175,24.27444,24.273026,24.27008,24.267382,24.263216,24.25988,24.255154,24.25134,24.246412,24.242048,24.236555,24.230738,24.224173,24.216509,24.209465,24.20032,24.19222,24.181774,24.174171,24.163822,24.156454,24.14601,24.138754,24.128199,24.12064,24.109213,24.100183,24.087885,24.077782,24.065056,24.05359,24.04046,24.027699,24.015999,24.003334,23.992529,23.978695,23.96736,23.95228,23.941257,23.926815,23.917246,23.90471,23.8968,23.884897,23.876165,23.865808,23.858393,23.84581,23.833092,23.816828,23.80218,23.789028,23.779295,23.774343,23.766867,23.749939,23.752571,23.782036,23.80557,23.816122,23.865646,24.018389,22.775896
19.681364,24.245247,24.658224,24.02049,24.041697,24.055157,24.066515,24.070166,24.064535,24.05612,24.049608,24.04912,24.055029,24.06525,24.076292,24.091722,24.10609,24.122757,24.13719,24.150328,24.162575,24.173927,24.186432,24.19606,24.208372,24.218355,24.22959,24.23603,24.24291,24.246164,24.251484,24.255507,24.26001,24.26261,24.266739,24.270235,24.27473,24.278175,24.280966,24.282495,24.28363,24.284239,24.28472,24.284838,24.284832,24.28401,24.28295,24.28093,24.279291,24.276018,24.273092,24.268593,24.26502,24.26001,24.256027,24.250916,24.246443,24.240833,24.234924,24.22825,24.220503,24.21342,24.204258,24.196144,24.185703,24.17812,24.16783,24.16053,24.15016,24.142927,24.132416,24.12489,24.113537,24.104568,24.092335,24.082266,24.069607,24.058195,24.045132,24.032396,24.020674,24.007952,23.997103,23.983208,23.971828,23.956654,23.945524,23.930992,23.921412,23.908865,23.900944,23.889019,23.880255,23.869812,23.862295,23.849537,23.836637,23.820175,23.805342,23.79197,23.782084,23.777084,23.769691,23.753157,23.755417,23.783934,23.805185,23.813044,23.859629,24.008856,22.799019
19.742987,24.247002,24.653925,24.02445,24.046965,24.062061,24.074057,24.078337,24.072996,24.065031,24.058859,24.058783,24.064922,24.075441,24.086643,24.102222,24.11663,24.133327,24.147713,24.160742,24.172812,24.183985,24.196283,24.20575,24.2179,24.227789,24.23894,24.24535,24.252192,24.255417,24.260717,24.264738,24.269218,24.271782,24.275866,24.279316,24.283737,24.287092,24.289759,24.291126,24.2921,24.292522,24.292835,24.292767,24.292646,24.291636,24.290407,24.288101,24.286234,24.282618,24.279436,24.274563,24.270718,24.265388,24.26121,24.255896,24.251314,24.245588,24.239586,24.232794,24.22494,24.217798,24.208593,24.200445,24.189985,24.182388,24.172123,24.164873,24.154533,24.147291,24.136782,24.129253,24.117935,24.109018,24.096867,24.086878,24.074331,24.063023,24.050093,24.037437,24.025732,24.012962,24.002062,23.988085,23.976654,23.96139,23.950167,23.9356,23.92607,23.913605,23.905752,23.893896,23.885153,23.874676,23.867064,23.854115,23.841,23.824295,23.809221,23.795557,23.78545,23.780348,23.773035,23.756979,23.758862,23.786356,23.804913,23.809433,23.851574,23.994595,22.836344
19.786531,24.247215,24.649187,24.02556,24.049675,24.066496,24.07889,24.083519,24.078356,24.070656,24.064674,24.06482,24.071089,24.08174,24.092997,24.108597,24.122976,24.139648,24.153975,24.166897,24.178827,24.189869,24.202024,24.211378,24.223425,24.23326,24.24437,24.250774,24.257605,24.260822,24.266123,24.270157,24.274618,24.277151,24.281193,24.284601,24.288944,24.29221,24.294767,24.296013,24.296858,24.297138,24.297335,24.297167,24.297012,24.295937,24.294647,24.292227,24.290258,24.286482,24.283178,24.278109,24.274115,24.268606,24.264322,24.258902,24.254261,24.24848,24.24243,24.235554,24.22761,24.220398,24.21112,24.202919,24.192389,24.184742,24.174412,24.16713,24.156729,24.149437,24.138853,24.13128,24.119932,24.111027,24.09894,24.089058,24.07664,24.06547,24.052708,24.040194,24.028566,24.015821,24.004911,23.99091,23.979458,23.964174,23.952923,23.938398,23.928947,23.916613,23.908865,23.897116,23.888416,23.877941,23.870264,23.857176,23.843878,23.826965,23.811682,23.79776,23.787447,23.782204,23.774887,23.759104,23.760788,23.787745,23.804705,23.807142,23.84577,23.983173,22.86796
19.842299,24.248034,24.644693,24.028923,24.053778,24.071873,24.08516,24.090567,24.0856,24.078236,24.072521,24.072989,24.079435,24.090277,24.101603,24.117237,24.131563,24.148174,24.162382,24.175137,24.186838,24.19767,24.20959,24.218754,24.230625,24.240368,24.251415,24.257814,24.264635,24.267847,24.273165,24.277225,24.281677,24.284168,24.288155,24.29151,24.295782,24.298958,24.301407,24.302534,24.303265,24.303425,24.30352,24.303259,24.303062,24.301895,24.300512,24.297905,24.295769,24.291721,24.288202,24.282818,24.278587,24.272781,24.268301,24.262672,24.257912,24.25201,24.24586,24.23885,24.230774,24.223473,24.214106,24.205832,24.19521,24.187492,24.177092,24.169775,24.15931,24.151962,24.141317,24.133717,24.122364,24.1135,24.101519,24.091772,24.079521,24.06851,24.05593,24.043547,24.031982,24.01921,24.008244,23.994146,23.98263,23.967281,23.955982,23.941513,23.93219,23.920063,23.91248,23.900932,23.892351,23.881948,23.874228,23.860992,23.847477,23.83032,23.814783,23.800554,23.789999,23.784616,23.777384,23.762074,23.763594,23.789896,23.804531,23.803743,23.837204,23.966537,22.914621
19.878458,24.249125,24.64321,24.032808,24.05705,24.075184,24.089317,24.095478,24.090622,24.083488,24.077976,24.078686,24.085268,24.096256,24.107643,24.123304,24.137596,24.154152,24.16826,24.180876,24.192394,24.203058,24.214783,24.22379,24.235514,24.245182,24.256187,24.262575,24.269398,24.272606,24.277948,24.28204,24.28649,24.288944,24.292896,24.29622,24.300457,24.3036,24.306,24.307081,24.307781,24.307915,24.307983,24.307686,24.30746,24.306221,24.30476,24.301987,24.2997,24.295408,24.291698,24.286043,24.281622,24.275553,24.270891,24.26507,24.26019,24.25416,24.247917,24.240793,24.232622,24.225264,24.215845,24.20752,24.196846,24.189083,24.178644,24.171316,24.160826,24.153454,24.1428,24.135208,24.12389,24.115076,24.103182,24.09352,24.081375,24.070444,24.057953,24.045607,24.034037,24.021202,24.010149,23.99594,23.984337,23.96891,23.95757,23.943138,23.933905,23.921934,23.91449,23.90312,23.894655,23.88435,23.876625,23.863317,23.84967,23.832375,23.816692,23.802277,23.791594,23.786167,23.779066,23.764168,23.76565,23.791592,23.804415,23.800941,23.83061,23.954386,22.949017
19.921755,24.250303,24.641306,24.037622,24.060883,24.079134,24.094793,24.102169,24.097338,24.090374,24.08506,24.085989,24.092686,24.103767,24.115173,24.130814,24.145039,24.161512,24.175499,24.18795,24.199272,24.209757,24.22127,24.230093,24.24162,24.251167,24.262072,24.268427,24.275208,24.278389,24.28372,24.287836,24.292295,24.294756,24.298698,24.302,24.306215,24.309332,24.311687,24.31271,24.313341,24.31339,24.3134,24.31303,24.312761,24.311447,24.309923,24.30704,24.304655,24.300205,24.296368,24.290533,24.28598,24.279722,24.27491,24.268919,24.26392,24.257788,24.251465,24.244219,24.235933,24.228508,24.219038,24.210674,24.199947,24.19213,24.181639,24.174303,24.163786,24.156385,24.1457,24.138094,24.126793,24.118017,24.106197,24.09662,24.084593,24.073778,24.061438,24.049208,24.037691,24.024862,24.013794,23.999544,23.987907,23.972422,23.961018,23.946619,23.937498,23.925694,23.918373,23.907188,23.898859,23.88869,23.88101,23.86765,23.853863,23.836407,23.820538,23.805883,23.795,23.789436,23.78242,23.768055,23.7693,23.794117,23.805508,23.8011,23.825523,23.938719,22.993631
19.946497,24.250927,24.640242,24.040695,24.063097,24.081411,24.098381,24.106726,24.101814,24.094868,24.089636,24.090637,24.097357,24.108442,24.119814,24.135403,24.149565,24.16598,24.179901,24.192268,24.20349,24.213892,24.225288,24.234007,24.245401,24.254843,24.265644,24.271969,24.278694,24.28183,24.287127,24.291237,24.295715,24.298208,24.30217,24.305475,24.30969,24.312801,24.315145,24.316133,24.316702,24.31667,24.316614,24.316183,24.315876,24.314528,24.31299,24.3101,24.30773,24.303286,24.299452,24.293627,24.289083,24.282804,24.277958,24.271904,24.266857,24.260693,24.254343,24.24703,24.23868,24.231216,24.22172,24.213352,24.202604,24.19475,24.184237,24.176897,24.166372,24.158957,24.148243,24.140612,24.129297,24.120531,24.108734,24.099192,24.087223,24.076492,24.06428,24.05217,24.040733,24.027967,24.016962,24.002762,23.991146,23.975662,23.964214,23.94983,23.940771,23.929054,23.921778,23.910688,23.902441,23.892376,23.884768,23.871408,23.857553,23.84002,23.824045,23.80924,23.79821,23.7925,23.785477,23.77146,23.772419,23.79603,23.807194,23.8041,23.824907,23.928768,23.022173
19.977543,24.251944,24.639292,24.045311,24.066841,24.085287,24.103739,24.11322,24.108269,24.101412,24.096327,24.09751,24.104334,24.115543,24.126978,24.142614,24.15678,24.173216,24.187126,24.199436,24.210545,24.220837,24.232065,24.240622,24.251799,24.261065,24.271687,24.277931,24.28454,24.287586,24.292788,24.29686,24.30131,24.3038,24.307726,24.31099,24.315157,24.318226,24.320528,24.321447,24.321917,24.321762,24.321602,24.321053,24.320662,24.319208,24.317595,24.314615,24.312191,24.307673,24.30379,24.297895,24.293306,24.286922,24.281958,24.275753,24.270573,24.264284,24.25782,24.250355,24.241867,24.234308,24.224754,24.21636,24.205576,24.19768,24.187138,24.179808,24.169289,24.161867,24.151138,24.14349,24.132187,24.123447,24.111698,24.102219,24.090343,24.079733,24.067678,24.055721,24.044388,24.031696,24.020752,24.006596,23.995,23.979517,23.968039,23.95371,23.94477,23.933222,23.926058,23.915161,23.907064,23.897196,23.889702,23.87638,23.862463,23.844847,23.828749,23.813778,23.802576,23.796694,23.78967,23.776085,23.776718,23.798918,23.809677,23.807903,23.824242,23.916983,23.055958
20.000195,24.252779,24.63864,24.048847,24.070019,24.088608,24.107838,24.117928,24.112988,24.106226,24.101257,24.10259,24.109514,24.12087,24.13241,24.148142,24.162355,24.178862,24.19281,24.205116,24.216164,24.22638,24.237478,24.245909,24.256903,24.26601,24.276466,24.282637,24.289125,24.292076,24.29717,24.301176,24.305569,24.308035,24.311897,24.3151,24.319212,24.322233,24.32449,24.325356,24.325743,24.32548,24.32522,24.324547,24.32406,24.322475,24.320765,24.317657,24.315147,24.310522,24.306568,24.300589,24.29594,24.289433,24.28435,24.277983,24.272667,24.26623,24.259634,24.25201,24.243382,24.235735,24.226128,24.21771,24.206911,24.199,24.188463,24.181164,24.170683,24.163292,24.15259,24.144957,24.133688,24.124987,24.113285,24.10385,24.092049,24.081516,24.069576,24.057722,24.046463,24.033836,24.022947,24.008842,23.997272,23.981821,23.970348,23.9561,23.947268,23.935862,23.928808,23.918081,23.910124,23.900434,23.89305,23.879803,23.865877,23.848246,23.8321,23.817055,23.805761,23.799784,23.792772,23.779474,23.779915,23.801226,23.811817,23.811068,23.824503,23.909954,23.075327
20.034647,24.253826,24.636652,24.052385,24.073727,24.092648,24.11212,24.122454,24.117609,24.110989,24.106123,24.107567,24.114548,24.126,24.137606,24.153366,24.167564,24.184076,24.198002,24.210253,24.221186,24.231274,24.242197,24.250486,24.261282,24.270216,24.280497,24.286585,24.292946,24.295794,24.300756,24.304684,24.309008,24.311459,24.315268,24.318424,24.322495,24.325493,24.32773,24.328547,24.328856,24.328455,24.328072,24.327215,24.32657,24.32476,24.322878,24.31952,24.316837,24.311985,24.307882,24.301723,24.296965,24.290257,24.284992,24.278399,24.272903,24.266281,24.259521,24.251694,24.242899,24.235167,24.225533,24.21712,24.20636,24.198477,24.188034,24.180845,24.170507,24.1632,24.15262,24.145071,24.133907,24.125275,24.113636,24.10423,24.09249,24.082026,24.070162,24.058386,24.047186,24.034632,24.023844,24.009853,23.99836,23.982994,23.971571,23.957447,23.948751,23.937513,23.930553,23.92,23.912188,23.902687,23.89543,23.882284,23.868397,23.850828,23.834705,23.819637,23.808311,23.802309,23.795416,23.782486,23.782864,23.803404,23.813934,23.81427,23.824398,23.901745,23.094862
20.076967,24.254538,24.633219,24.054773,24.076622,24.095856,24.11496,24.125055,24.1203,24.113766,24.108938,24.110397,24.117367,24.128845,24.140495,24.156248,24.170418,24.186922,24.200832,24.213041,24.22389,24.23387,24.244652,24.252848,24.2635,24.272303,24.282438,24.28846,24.294716,24.29748,24.30232,24.306162,24.310413,24.31284,24.3166,24.319715,24.323748,24.326717,24.328938,24.329718,24.329958,24.329441,24.328943,24.327915,24.327133,24.325123,24.32308,24.319502,24.316658,24.311602,24.307371,24.301067,24.296219,24.289343,24.283932,24.277155,24.271519,24.26474,24.257847,24.24985,24.240921,24.233128,24.22349,24.215092,24.204393,24.196558,24.186247,24.179192,24.169031,24.161839,24.151428,24.144005,24.132992,24.124449,24.112888,24.103518,24.09184,24.081434,24.069633,24.057924,24.046785,24.034332,24.023672,24.009848,23.99847,23.983244,23.971907,23.957922,23.949343,23.938232,23.931332,23.920893,23.913181,23.90382,23.896667,23.883644,23.869846,23.852406,23.836378,23.821354,23.810066,23.804102,23.797329,23.784643,23.785055,23.805264,23.81581,23.816782,23.824688,23.89699,23.102024
20.135805,24.255299,24.628578,24.057837,24.079935,24.099371,24.118221,24.1281,24.123322,24.116758,24.11191,24.113327,24.120262,24.13177,24.143484,24.15928,24.173475,24.190048,24.204018,24.216263,24.227085,24.236998,24.24767,24.255789,24.26629,24.274939,24.284895,24.290827,24.296944,24.2996,24.30428,24.308002,24.312151,24.314539,24.318232,24.321281,24.325218,24.328108,24.330267,24.330975,24.331104,24.33043,24.329784,24.328592,24.327702,24.325558,24.323416,24.31972,24.316805,24.311672,24.307419,24.301075,24.296202,24.28924,24.283724,24.276815,24.271059,24.264143,24.257109,24.24894,24.239864,24.231987,24.222307,24.213894,24.203215,24.195396,24.185171,24.17822,24.16821,24.16112,24.150866,24.143555,24.132696,24.124266,24.112823,24.103533,24.091972,24.081688,24.070038,24.058493,24.047495,24.035217,24.024736,24.011124,23.9999,23.984818,23.973549,23.959671,23.951181,23.94016,23.933298,23.922949,23.915327,23.906107,23.899082,23.886215,23.872538,23.85523,23.839294,23.82433,23.813059,23.80708,23.80033,23.787804,23.788149,23.807997,23.818401,23.819824,23.825535,23.893337,23.10408
20.21742,24.255032,24.620775,24.05996,24.082043,24.101505,24.120014,24.129587,24.12473,24.118078,24.113188,24.114527,24.12141,24.132942,24.144741,24.160593,24.174826,24.19149,24.205542,24.217855,24.228678,24.238527,24.249092,24.257156,24.26755,24.27607,24.285883,24.291742,24.297764,24.300364,24.304918,24.308529,24.312555,24.314878,24.31847,24.321434,24.325232,24.328003,24.330076,24.330719,24.330765,24.329987,24.329237,24.327951,24.327024,24.32484,24.322666,24.31893,24.315996,24.310871,24.306644,24.300335,24.295475,24.2885,24.282944,24.275991,24.270193,24.263205,24.256098,24.247839,24.238693,24.230776,24.22108,24.212666,24.202011,24.194214,24.184076,24.17722,24.167358,24.160383,24.150324,24.143166,24.132524,24.124249,24.112993,24.103842,24.092466,24.082354,24.0709,24.059553,24.04874,24.036701,24.026438,24.013096,24.002085,23.987251,23.976156,23.962496,23.954151,23.943298,23.93652,23.926306,23.918783,23.909689,23.902748,23.890032,23.876497,23.859348,23.843521,23.828629,23.817379,23.811392,23.804605,23.792078,23.792297,23.811964,23.82208,23.82349,23.82774,23.893494,23.094805
20.301115,24.254177,24.61172,24.060446,24.082348,24.10177,24.119934,24.129221,24.124313,24.117619,24.112724,24.114033,24.12088,24.132465,24.144346,24.160233,24.174467,24.191183,24.205282,24.217625,24.228413,24.238157,24.248594,24.2566,24.266912,24.27535,24.285091,24.29092,24.296934,24.299553,24.304075,24.307617,24.311552,24.313799,24.317297,24.32018,24.323866,24.32654,24.328568,24.329203,24.329252,24.328478,24.327717,24.326427,24.325521,24.323343,24.321156,24.317387,24.31441,24.30926,24.305042,24.29873,24.293867,24.286879,24.281307,24.274357,24.268566,24.261576,24.254461,24.246197,24.23706,24.229172,24.219532,24.21115,24.200563,24.192835,24.182825,24.17608,24.166399,24.15956,24.149736,24.142784,24.132402,24.1243,24.113268,24.104277,24.093111,24.083168,24.071873,24.060675,24.050024,24.038193,24.028131,24.015072,24.004274,23.989786,23.978981,23.965696,23.957592,23.94703,23.940418,23.930431,23.92305,23.914051,23.907127,23.894508,23.881096,23.864098,23.848389,23.833544,23.8223,23.816347,23.809536,23.796947,23.796995,23.81652,23.826267,23.827427,23.830706,23.895723,23.082941
20.418362,24.250948,24.598011,24.060917,24.082382,24.101547,24.119343,24.128342,24.123396,24.116669,24.111776,24.113047,24.119858,24.131498,24.143476,24.159395,24.173626,24.190393,24.204552,24.216944,24.2277,24.237316,24.247608,24.25556,24.265814,24.274189,24.283869,24.289669,24.295696,24.298374,24.302874,24.306332,24.310122,24.312235,24.315561,24.318312,24.321785,24.32429,24.326195,24.326777,24.326803,24.326035,24.325264,24.32399,24.32312,24.32098,24.318804,24.31503,24.312021,24.30687,24.30268,24.296387,24.291538,24.284565,24.279013,24.272123,24.266396,24.259468,24.252409,24.244211,24.235151,24.227337,24.217764,24.209412,24.198875,24.191195,24.181282,24.17462,24.165092,24.158377,24.148811,24.142097,24.132023,24.12414,24.113388,24.104605,24.093716,24.084,24.072908,24.061895,24.051449,24.039885,24.030067,24.017345,24.006828,23.99278,23.982351,23.969555,23.961758,23.951582,23.945198,23.935509,23.9283,23.919409,23.912483,23.899973,23.8867,23.869875,23.854296,23.839508,23.828268,23.822367,23.815508,23.80276,23.802671,23.822325,23.831703,23.83235,23.8351,23.901133,23.058786
20.521051,24.24676,24.585611,24.061909,24.082937,24.101776,24.119337,24.12816,24.123196,24.116434,24.111519,24.112734,24.119501,24.131157,24.14319,24.159117,24.173338,24.190142,24.204353,24.21679,24.227531,24.237059,24.247246,24.255165,24.265383,24.273712,24.283337,24.289095,24.295113,24.297813,24.30226,24.305614,24.309242,24.311205,24.314352,24.316948,24.320196,24.322506,24.32425,24.324736,24.324688,24.32386,24.323036,24.321732,24.320873,24.31875,24.316586,24.312815,24.309803,24.30467,24.300508,24.294252,24.289425,24.282476,24.276955,24.270123,24.26446,24.257591,24.250591,24.242456,24.233456,24.225683,24.216133,24.207773,24.197224,24.18953,24.17962,24.172981,24.163513,24.15686,24.14745,24.140896,24.131042,24.123323,24.11278,24.10416,24.093493,24.083965,24.073048,24.062193,24.051916,24.040565,24.030947,24.018501,24.008204,23.994482,23.984318,23.971869,23.964306,23.95441,23.948204,23.938738,23.931667,23.922884,23.915993,23.903591,23.89043,23.873732,23.858227,23.843468,23.832214,23.826319,23.8194,23.806496,23.806406,23.826393,23.835655,23.835915,23.838364,23.905575,23.035759
20.658882,24.241129,24.569332,24.063942,24.084385,24.102755,24.120005,24.128633,24.123682,24.116953,24.112074,24.113304,24.120075,24.131813,24.143955,24.15995,24.174204,24.191109,24.205421,24.217968,24.228739,24.238178,24.248259,24.256151,24.266323,24.274595,24.284147,24.289852,24.295877,24.298647,24.303072,24.306335,24.309778,24.311565,24.314486,24.316881,24.319815,24.321844,24.323336,24.323652,24.323471,24.32256,24.321663,24.320328,24.319471,24.317379,24.315248,24.311512,24.308512,24.303429,24.299322,24.293127,24.288332,24.281443,24.275974,24.269236,24.263664,24.256895,24.249992,24.24199,24.233109,24.22542,24.21591,24.207558,24.196987,24.189264,24.179337,24.172688,24.163254,24.156645,24.147392,24.141016,24.131413,24.123892,24.113607,24.105192,24.09481,24.085539,24.074879,24.064272,24.054253,24.043188,24.033815,24.021688,24.01166,23.998318,23.988443,23.97636,23.969028,23.959433,23.953413,23.94417,23.937218,23.928501,23.921598,23.909296,23.896278,23.879763,23.864412,23.849752,23.838558,23.832754,23.825829,23.812733,23.812618,23.833015,23.842007,23.841639,23.844236,23.914608,22.996601
20.760712,24.2374,24.557833,24.066006,24.086056,24.104097,24.121094,24.129583,24.124666,24.118023,24.113218,24.114538,24.121351,24.133215,24.145483,24.161577,24.175896,24.192911,24.207333,24.21999,24.230812,24.240208,24.250214,24.258087,24.268219,24.27644,24.285929,24.291597,24.29765,24.300505,24.30496,24.308184,24.31154,24.313229,24.316015,24.318277,24.320992,24.322803,24.324097,24.324272,24.323997,24.323027,24.322083,24.32073,24.319881,24.317823,24.31573,24.312038,24.309067,24.30403,24.299969,24.293816,24.28904,24.282194,24.27677,24.270094,24.264578,24.257872,24.251038,24.24315,24.234388,24.226767,24.217299,24.208961,24.198383,24.190643,24.180689,24.174013,24.164577,24.15799,24.14883,24.142557,24.133114,24.125725,24.115612,24.107347,24.097162,24.088081,24.07763,24.067234,24.05742,24.046572,24.037357,24.02543,24.015574,24.002455,23.992746,23.980852,23.973625,23.964184,23.95827,23.949135,23.94222,23.933493,23.926546,23.914284,23.901375,23.885017,23.869833,23.855295,23.844208,23.838537,23.83165,23.81844,23.81825,23.83886,23.847515,23.84662,23.849611,23.923153,22.963343
20.888094,24.232647,24.543005,24.068089,24.087568,24.105165,24.121847,24.13017,24.125317,24.118813,24.114147,24.115593,24.122463,24.134474,24.146881,24.163094,24.177494,24.19465,24.209217,24.222046,24.232965,24.242336,24.252293,24.260176,24.270304,24.278496,24.287945,24.293575,24.299667,24.302637,24.307121,24.31029,24.313503,24.315022,24.317585,24.31964,24.322042,24.323563,24.324577,24.324549,24.324142,24.3231,24.322102,24.320723,24.319864,24.31783,24.315775,24.312126,24.309172,24.304195,24.300203,24.294142,24.28944,24.28272,24.277407,24.27089,24.265516,24.258968,24.25229,24.24461,24.236044,24.228558,24.219183,24.210907,24.200361,24.192627,24.182674,24.175991,24.16659,24.160048,24.15103,24.144917,24.135706,24.128508,24.11864,24.110579,24.10068,24.09187,24.081705,24.071598,24.062069,24.051533,24.042568,24.030973,24.0214,24.008663,23.999245,23.987698,23.980673,23.97149,23.965733,23.956743,23.949863,23.941072,23.934017,23.92174,23.908915,23.892735,23.877762,23.863398,23.852484,23.847033,23.84025,23.826935,23.826677,23.847563,23.855717,23.854029,23.857939,23.9368,22.913794
20.967802,24.229548,24.533316,24.068914,24.087994,24.105299,24.121784,24.130013,24.125208,24.118813,24.114264,24.115803,24.122702,24.13479,24.147272,24.163551,24.178001,24.195242,24.209906,24.222853,24.233862,24.243244,24.253199,24.261112,24.271276,24.279478,24.288933,24.294552,24.300682,24.303717,24.308218,24.311335,24.314423,24.315788,24.318157,24.320047,24.32222,24.323536,24.324343,24.324175,24.323677,24.32259,24.321568,24.320175,24.319302,24.317268,24.315233,24.311607,24.308655,24.303713,24.299763,24.293795,24.289185,24.282598,24.277403,24.27105,24.26583,24.25944,24.252913,24.245403,24.236994,24.229628,24.220352,24.212135,24.201641,24.193933,24.184006,24.177341,24.167982,24.161484,24.152582,24.14659,24.13756,24.130507,24.12082,24.112902,24.103209,24.094595,24.084631,24.074722,24.06539,24.055082,24.04632,24.035006,24.025663,24.01326,24.004095,23.992863,23.986032,23.977074,23.971432,23.962543,23.955683,23.946815,23.939642,23.927292,23.914476,23.898369,23.883522,23.86927,23.858492,23.853209,23.846533,23.833189,23.832912,23.85398,23.86176,23.859486,23.864311,23.947506,22.877153
21.064524,24.226671,24.522278,24.070595,24.088936,24.105696,24.121927,24.130033,24.125277,24.11898,24.11453,24.11615,24.123075,24.135223,24.147758,24.164097,24.178608,24.195976,24.210789,24.223898,24.235031,24.244452,24.254421,24.262383,24.27256,24.280737,24.290138,24.295712,24.30185,24.30495,24.309458,24.312527,24.315527,24.316805,24.31906,24.32084,24.322851,24.324005,24.32463,24.324303,24.323679,24.32248,24.32138,24.319878,24.31889,24.316744,24.314663,24.31099,24.308004,24.30306,24.299131,24.293264,24.28877,24.28237,24.277338,24.271202,24.266161,24.259985,24.253654,24.24637,24.23817,24.230965,24.22185,24.213762,24.2034,24.195772,24.18595,24.179365,24.170126,24.163717,24.154978,24.149126,24.140312,24.133432,24.123941,24.116167,24.106674,24.098259,24.088528,24.078857,24.069746,24.059692,24.05115,24.040152,24.031097,24.019068,24.010159,23.99925,23.99262,23.983915,23.978426,23.969685,23.962872,23.95401,23.946808,23.934551,23.921923,23.9061,23.891575,23.877626,23.867128,23.862152,23.855595,23.842073,23.841715,23.863165,23.870485,23.86737,23.873158,23.961853,22.827335
21.12027,24.225712,24.51642,24.072023,24.089731,24.106012,24.122082,24.130112,24.125374,24.119118,24.1147,24.116352,24.123291,24.135448,24.147987,24.16435,24.17891,24.196377,24.211308,24.224537,24.23576,24.245234,24.255238,24.263239,24.273415,24.281546,24.290876,24.296402,24.302519,24.305641,24.31015,24.313198,24.316196,24.317497,24.31977,24.321564,24.323566,24.324692,24.32526,24.32485,24.32413,24.322813,24.32163,24.319992,24.318861,24.31656,24.314392,24.310633,24.307606,24.302626,24.29869,24.292871,24.288464,24.282194,24.27729,24.271296,24.266373,24.260336,24.254137,24.246994,24.238934,24.231833,24.222843,24.21488,24.204655,24.197115,24.187416,24.180923,24.171808,24.165483,24.156862,24.151089,24.142406,24.135637,24.12625,24.118532,24.109127,24.100801,24.09121,24.081682,24.072687,24.062769,24.054346,24.043531,24.034655,24.022825,24.014038,24.003275,23.996744,23.988173,23.982777,23.974133,23.967367,23.958569,23.951443,23.939367,23.926971,23.911465,23.897253,23.883608,23.873365,23.868635,23.862131,23.848377,23.847918,23.869728,23.876799,23.873089,23.879213,23.971138,22.793905
21.188753,24.224037,24.508331,24.072853,24.08969,24.105316,24.121134,24.129053,24.124361,24.118223,24.113926,24.11573,24.12277,24.135063,24.147709,24.164234,24.178957,24.196661,24.211832,24.225294,24.236721,24.246353,24.2565,24.264624,24.274878,24.28301,24.292341,24.297863,24.304016,24.30719,24.31172,24.314743,24.317715,24.318998,24.321228,24.322962,24.324863,24.32586,24.326271,24.32569,24.324804,24.32333,24.322037,24.32026,24.318987,24.316557,24.31434,24.310553,24.307522,24.302576,24.298685,24.293015,24.288774,24.282738,24.27802,24.27224,24.267475,24.26162,24.255571,24.24858,24.240652,24.233656,24.224787,24.216951,24.206867,24.199404,24.189812,24.183401,24.174421,24.168198,24.15973,24.15408,24.145622,24.139051,24.129904,24.122366,24.113188,24.105085,24.095781,24.08655,24.077799,24.068148,24.059956,24.049458,24.040873,24.029367,24.020773,24.010231,24.00383,23.995396,23.990065,23.981451,23.974653,23.965782,23.95859,23.946526,23.934233,23.918892,23.904865,23.891376,23.88123,23.876596,23.86995,23.855707,23.855108,23.877586,23.884567,23.880352,23.884861,23.976784,22.758183
21.231544,24.22287,24.50274,24.072845,24.089085,24.104277,24.119911,24.12777,24.123148,24.117168,24.11303,24.11504,24.122227,24.134714,24.147514,24.164253,24.179174,24.197132,24.212538,24.226223,24.237856,24.247665,24.257984,24.266237,24.276596,24.284767,24.294146,24.299704,24.305906,24.309116,24.313654,24.316654,24.319595,24.320839,24.322994,24.324648,24.326427,24.327297,24.32755,24.326813,24.32578,24.324173,24.322796,24.32093,24.319574,24.31708,24.314854,24.311085,24.308084,24.303202,24.299376,24.29386,24.28978,24.283945,24.279373,24.273756,24.2691,24.263365,24.257406,24.250494,24.242632,24.235674,24.226868,24.219105,24.209106,24.201685,24.192148,24.18578,24.176882,24.17073,24.162382,24.156828,24.148565,24.142183,24.133268,24.125923,24.116982,24.109098,24.100075,24.091122,24.082603,24.073204,24.065239,24.055027,24.046686,24.035458,24.027023,24.016657,24.01035,24.001991,23.996668,23.988018,23.981146,23.972132,23.9648,23.952627,23.940287,23.924923,23.910885,23.897358,23.887115,23.882391,23.875471,23.860723,23.859972,23.883017,23.890072,23.885666,23.887552,23.97641,22.73984
21.283222,24.222155,24.496569,24.073471,24.089293,24.10427,24.119776,24.127647,24.123156,24.117453,24.113573,24.115898,24.123287,24.136036,24.149027,24.166046,24.181221,24.199482,24.215162,24.229105,24.240965,24.250957,24.261444,24.269827,24.280273,24.288458,24.297834,24.303396,24.309593,24.312798,24.31727,24.320196,24.323034,24.324192,24.326216,24.327747,24.329378,24.330109,24.330198,24.329292,24.328096,24.326336,24.324858,24.322868,24.321383,24.318771,24.31649,24.312698,24.309702,24.304865,24.301094,24.295732,24.291813,24.28619,24.281773,24.27632,24.271769,24.26615,24.260279,24.253448,24.245655,24.23876,24.230042,24.222378,24.212488,24.205118,24.195665,24.189363,24.180576,24.17451,24.166313,24.160889,24.152874,24.146715,24.138073,24.130941,24.122276,24.114653,24.10595,24.097313,24.089079,24.079998,24.072332,24.062506,24.054487,24.043629,24.035435,24.02534,24.019192,24.010986,24.00572,23.9971,23.990202,23.981094,23.973656,23.961414,23.949072,23.933739,23.919731,23.906204,23.895885,23.891104,23.883883,23.868576,23.867504,23.890917,23.897806,23.893064,23.892511,23.978943,22.719336
21.324837,24.221388,24.491379,24.07409,24.089842,24.104921,24.12042,24.128448,24.124166,24.11883,24.11526,24.117962,24.12558,24.138622,24.151812,24.169106,24.18451,24.203035,24.218931,24.233068,24.245079,24.2552,24.26579,24.274254,24.284737,24.292904,24.302252,24.307806,24.313965,24.317123,24.32151,24.324352,24.32709,24.328173,24.330078,24.331501,24.333025,24.333666,24.333637,24.332602,24.331274,24.329378,24.327805,24.325693,24.324091,24.32135,24.318996,24.315151,24.312147,24.307333,24.303602,24.298346,24.29454,24.289068,24.28476,24.27941,24.27492,24.269379,24.26357,24.256796,24.249065,24.24223,24.23361,24.22605,24.216267,24.208954,24.199581,24.193348,24.184662,24.178663,24.170595,24.16528,24.15746,24.151484,24.143055,24.13608,24.127632,24.120216,24.111761,24.10338,24.095371,24.086557,24.079147,24.069649,24.061895,24.051357,24.043371,24.033516,24.027512,24.019457,24.014256,24.005701,23.998823,23.989689,23.9822,23.969948,23.957628,23.942335,23.928349,23.9148,23.904377,23.8995,23.891954,23.876137,23.874647,23.898138,23.904726,23.899628,23.897255,23.981756,22.70884
21.371141,24.219519,24.484922,24.07459,24.090298,24.105509,24.121056,24.129349,24.125387,24.12053,24.117311,24.12046,24.128357,24.141748,24.155167,24.172745,24.188362,24.207159,24.223269,24.237562,24.249687,24.259909,24.270586,24.279104,24.289593,24.297712,24.307013,24.31256,24.318684,24.3218,24.326118,24.328907,24.331602,24.332668,24.334526,24.335905,24.33738,24.337955,24.337833,24.336664,24.33517,24.333086,24.331377,24.329086,24.327322,24.324408,24.321947,24.318026,24.315018,24.310226,24.306528,24.30138,24.297691,24.292389,24.288212,24.282976,24.27855,24.273104,24.267385,24.260698,24.253067,24.246323,24.237843,24.23044,24.220833,24.213606,24.20436,24.198215,24.189661,24.18375,24.175808,24.170586,24.162952,24.157146,24.148901,24.142061,24.133795,24.126562,24.118343,24.110216,24.102425,24.093866,24.086699,24.077518,24.070032,24.059797,24.051992,24.042343,24.036467,24.028543,24.023403,24.014927,24.008091,23.998976,23.991478,23.979286,23.96705,23.951853,23.937897,23.924313,23.913723,23.908688,23.900694,23.8842,23.88214,23.905682,23.91188,23.906279,23.902002,23.984474,22.700352
21.425608,24.215872,24.476318,24.074547,24.090319,24.105787,24.121473,24.130178,24.126657,24.12244,24.11968,24.123411,24.131676,24.145535,24.15925,24.177172,24.193016,24.21207,24.228355,24.242764,24.254944,24.26522,24.275932,24.284462,24.294937,24.303015,24.31229,24.317852,24.32397,24.327065,24.331352,24.334122,24.3368,24.337862,24.339687,24.341022,24.342451,24.34297,24.342758,24.341463,24.339823,24.337574,24.335749,24.333323,24.33144,24.3284,24.32586,24.321884,24.318876,24.314104,24.310434,24.305367,24.301767,24.29659,24.292513,24.287365,24.282995,24.277641,24.27202,24.265434,24.257929,24.2513,24.242992,24.235764,24.226341,24.219215,24.21009,24.20403,24.19559,24.189749,24.181917,24.176777,24.169302,24.16364,24.15557,24.148859,24.140762,24.13369,24.12568,24.117762,24.110147,24.101795,24.094809,24.085863,24.07858,24.068573,24.060904,24.051414,24.04563,24.037811,24.03272,24.024323,24.017542,24.008446,24.000944,23.988806,23.97664,23.961517,23.947575,23.933924,23.923128,23.917881,23.909391,23.892204,23.8896,23.913233,23.919086,23.912886,23.906914,23.987339,22.700464
21.484095,24.211992,24.466843,24.073612,24.089405,24.105154,24.120983,24.130106,24.12702,24.123487,24.121254,24.12566,24.134356,24.148787,24.162895,24.181267,24.1974,24.216753,24.233223,24.247793,24.260065,24.270407,24.28116,24.289717,24.300226,24.30833,24.317667,24.323288,24.32946,24.33257,24.33687,24.339634,24.342278,24.343288,24.345016,24.346245,24.347553,24.347963,24.347622,24.346195,24.34443,24.342081,24.340195,24.337729,24.33582,24.332766,24.330217,24.326254,24.323263,24.318531,24.3149,24.309902,24.30637,24.301271,24.297245,24.29216,24.287838,24.282547,24.276995,24.270487,24.263075,24.256556,24.248375,24.24127,24.231968,24.224901,24.215832,24.2098,24.201397,24.195595,24.187836,24.182777,24.175447,24.169922,24.162043,24.155499,24.147606,24.140713,24.132902,24.125168,24.117718,24.10953,24.102678,24.093899,24.086746,24.076899,24.069345,24.059988,24.054281,24.046532,24.041456,24.033085,24.026314,24.01716,24.009562,23.997349,23.985132,23.969967,23.955957,23.942204,23.931204,23.925734,23.916832,23.89908,23.896187,23.920137,23.925907,23.919153,23.911789,23.990337,22.705393
21.56191,24.204613,24.453554,24.07327,24.089254,24.10534,24.121393,24.131065,24.12853,24.12582,24.124195,24.129328,24.138449,24.153444,24.167906,24.18666,24.202995,24.222536,24.23907,24.253666,24.265892,24.276173,24.286833,24.295317,24.30576,24.313843,24.323193,24.328854,24.33506,24.338179,24.3425,24.34528,24.3479,24.348867,24.350502,24.351633,24.35285,24.353191,24.352747,24.35123,24.349396,24.347,24.345102,24.342644,24.340742,24.337698,24.335161,24.331196,24.328197,24.323471,24.319859,24.314894,24.3114,24.306345,24.302359,24.297346,24.293102,24.28792,24.282488,24.276117,24.268885,24.262545,24.25459,24.247671,24.238562,24.23161,24.222664,24.216703,24.208387,24.20264,24.194998,24.190046,24.182886,24.1775,24.169823,24.163448,24.155771,24.149055,24.141424,24.13384,24.126532,24.118473,24.111727,24.103067,24.096003,24.086288,24.078846,24.069628,24.064005,24.05635,24.051321,24.043036,24.036335,24.027205,24.019579,24.007372,23.995184,23.980076,23.966082,23.952301,23.941137,23.93546,23.926126,23.90779,23.90452,23.92869,23.93422,23.92676,23.917673,23.993673,22.716213
21.625917,24.196947,24.442238,24.07405,24.09035,24.106712,24.122984,24.133118,24.131031,24.128942,24.12774,24.133324,24.142662,24.157925,24.172527,24.191395,24.207739,24.227257,24.243698,24.258171,24.270226,24.280336,24.290804,24.29914,24.30943,24.317408,24.326677,24.332321,24.3385,24.341597,24.345913,24.348713,24.351343,24.3523,24.35392,24.355042,24.35628,24.35665,24.356213,24.354692,24.35286,24.350477,24.348598,24.346146,24.344236,24.34116,24.3386,24.334589,24.331545,24.326769,24.323137,24.318161,24.314672,24.309633,24.305672,24.300718,24.29656,24.291485,24.28619,24.279976,24.272942,24.266802,24.2591,24.252388,24.243513,24.236712,24.227945,24.222103,24.213934,24.208265,24.200756,24.195894,24.188868,24.183582,24.17602,24.169733,24.162172,24.155561,24.14802,24.140507,24.133268,24.12529,24.118612,24.110035,24.103025,24.093405,24.086042,24.076939,24.071388,24.063837,24.058882,24.05073,24.044144,24.03513,24.027588,24.015528,24.003485,23.988558,23.974688,23.960983,23.949768,23.944006,23.934355,23.91555,23.911839,23.935966,23.941042,23.932877,23.922188,23.99596,22.724508
21.715443,24.185514,24.42651,24.075834,24.092485,24.109037,24.125551,24.13625,24.13473,24.133379,24.132647,24.138737,24.148302,24.16384,24.178558,24.197483,24.213758,24.233177,24.249447,24.26369,24.27545,24.28528,24.295437,24.303535,24.313578,24.321396,24.330532,24.336142,24.342283,24.345356,24.349665,24.352476,24.355104,24.356047,24.357628,24.358711,24.359936,24.360302,24.359844,24.3583,24.356445,24.35406,24.352196,24.349758,24.34786,24.344786,24.342218,24.338173,24.335089,24.330269,24.326614,24.321627,24.31815,24.313152,24.309248,24.304415,24.300406,24.295536,24.290464,24.28448,24.277714,24.271835,24.264446,24.257994,24.249407,24.242792,24.234255,24.228565,24.220589,24.215036,24.207705,24.202972,24.196123,24.19097,24.183582,24.177435,24.17006,24.16359,24.15618,24.14876,24.14161,24.133698,24.127066,24.118542,24.111572,24.102045,24.094782,24.085821,24.080378,24.07298,24.068138,24.060207,24.053818,24.045038,24.037666,24.02588,24.014101,23.999502,23.985874,23.972334,23.961077,23.955164,23.9451,23.925816,23.921555,23.945438,23.949974,23.941208,23.928486,23.998827,22.739937
21.784342,24.176643,24.414574,24.077394,24.094172,24.110697,24.127354,24.13842,24.1373,24.136446,24.136013,24.14244,24.152176,24.167902,24.1827,24.20165,24.217869,24.237219,24.253366,24.267435,24.278973,24.288597,24.298529,24.30645,24.31632,24.324032,24.333086,24.338675,24.344803,24.347864,24.35216,24.354963,24.357569,24.358486,24.36001,24.361032,24.362183,24.362488,24.36196,24.360352,24.358433,24.355995,24.354109,24.351679,24.349806,24.346764,24.344208,24.340178,24.337097,24.33228,24.328619,24.32365,24.3202,24.315262,24.311438,24.306732,24.302866,24.29818,24.293303,24.287498,24.280914,24.275208,24.268011,24.261719,24.253307,24.246803,24.238403,24.232803,24.224949,24.21948,24.212269,24.20762,24.200897,24.19584,24.18861,24.182604,24.17538,24.169035,24.161747,24.154419,24.147343,24.13948,24.13286,24.124348,24.117392,24.107918,24.100723,24.091871,24.086512,24.079233,24.07447,24.066713,24.060486,24.051897,24.044662,24.033104,24.021534,24.007202,23.993765,23.980352,23.969042,23.962973,23.952547,23.93288,23.928207,23.951906,23.95611,23.946991,23.932783,24.000383,22.753456
21.87744,24.164984,24.398748,24.079847,24.096949,24.113552,24.130365,24.141901,24.141308,24.141102,24.141064,24.14792,24.157862,24.173826,24.188719,24.207695,24.223814,24.243055,24.259016,24.272837,24.284044,24.293356,24.302927,24.310572,24.320158,24.327698,24.336617,24.342173,24.348282,24.351345,24.355646,24.35846,24.361053,24.361944,24.363401,24.364351,24.365427,24.365679,24.365095,24.363453,24.36151,24.359077,24.357214,24.354849,24.35304,24.350067,24.34755,24.34352,24.340414,24.335554,24.33186,24.326859,24.323402,24.318485,24.31472,24.310139,24.306438,24.301981,24.297348,24.291773,24.285433,24.279957,24.27303,24.266954,24.25879,24.252438,24.244234,24.238777,24.231112,24.225767,24.218752,24.21426,24.207752,24.202858,24.195873,24.190073,24.183102,24.17694,24.169806,24.162575,24.155582,24.147747,24.141111,24.132574,24.125599,24.116175,24.109072,24.100376,24.095142,24.088053,24.083424,24.075932,24.069946,24.06165,24.054632,24.043398,24.03213,24.018192,24.005064,23.991892,23.980602,23.974295,23.963703,23.944311,23.93951,23.96241,23.966492,23.958225,23.942635,24.005852,22.777567
21.940258,24.157356,24.388277,24.081736,24.099163,24.115896,24.132805,24.14463,24.144384,24.144617,24.14484,24.151981,24.162046,24.178167,24.193127,24.212109,24.228155,24.247303,24.263126,24.276764,24.287727,24.296793,24.306084,24.313507,24.322868,24.330269,24.339083,24.344614,24.350714,24.35379,24.358116,24.360954,24.363558,24.364435,24.365862,24.366777,24.367826,24.368069,24.36748,24.365858,24.363947,24.361576,24.359776,24.357494,24.355755,24.352842,24.350353,24.346312,24.343164,24.338234,24.33448,24.329412,24.325916,24.320961,24.317192,24.312656,24.309048,24.304722,24.300236,24.29481,24.288635,24.283323,24.276585,24.270658,24.262661,24.256422,24.248365,24.243013,24.23549,24.230242,24.22339,24.219032,24.212704,24.207943,24.201155,24.195517,24.188736,24.18271,24.175674,24.16848,24.16152,24.153679,24.147009,24.138416,24.131397,24.121988,24.114946,24.10637,24.101229,24.09429,24.08977,24.082485,24.07668,24.0686,24.061739,24.050735,24.039677,24.026018,24.013126,24.000162,23.988947,23.98246,23.972004,23.953394,23.948835,23.970762,23.97501,23.968334,23.952267,24.011997,22.797804
22.027662,24.147532,24.374159,24.08457,24.102716,24.119864,24.136879,24.149084,24.149311,24.150105,24.150642,24.158102,24.168293,24.184566,24.199585,24.218552,24.234497,24.25354,24.269203,24.282629,24.293299,24.30207,24.31101,24.318163,24.32722,24.334404,24.343039,24.348515,24.354572,24.35764,24.361952,24.364782,24.367374,24.368229,24.369595,24.370436,24.371407,24.371595,24.370975,24.369356,24.36745,24.365126,24.363382,24.361204,24.359564,24.356762,24.35434,24.350351,24.34722,24.34229,24.33853,24.333467,24.32999,24.325077,24.321363,24.316921,24.31344,24.309305,24.30503,24.299797,24.293829,24.28872,24.282232,24.276524,24.268778,24.262703,24.254866,24.249678,24.24238,24.23728,24.23065,24.226448,24.220343,24.215752,24.209198,24.203753,24.197218,24.191387,24.184534,24.177471,24.170624,24.162859,24.15623,24.147675,24.140667,24.131323,24.12437,24.115942,24.110918,24.104141,24.099728,24.09269,24.08713,24.079405,24.072851,24.06226,24.051577,24.038406,24.025925,24.01333,24.002285,23.995604,23.985273,23.967554,23.96327,23.984112,23.98845,23.983334,23.96662,24.022175,22.829094
22.088467,24.14126,24.364655,24.086699,24.105547,24.123163,24.140244,24.152689,24.15324,24.154392,24.155115,24.162745,24.172987,24.189331,24.204374,24.223318,24.2392,24.258188,24.273771,24.287077,24.297577,24.306175,24.314901,24.321884,24.330732,24.337746,24.346228,24.351654,24.357655,24.360695,24.364967,24.36777,24.370335,24.371174,24.372486,24.373262,24.374153,24.374285,24.373632,24.372002,24.37008,24.367764,24.366045,24.363932,24.362364,24.359657,24.3573,24.353401,24.350327,24.345469,24.341751,24.336767,24.333359,24.328533,24.324892,24.320534,24.317133,24.313139,24.309008,24.303898,24.29805,24.29306,24.286736,24.281189,24.273634,24.267675,24.26001,24.254951,24.247828,24.242847,24.236366,24.232256,24.226292,24.221802,24.21539,24.210058,24.203674,24.197983,24.191288,24.18437,24.17764,24.169994,24.163458,24.154995,24.14805,24.138783,24.131891,24.123554,24.118607,24.111908,24.107538,24.100647,24.095253,24.087814,24.081532,24.071297,24.060936,24.04817,24.036037,24.023764,24.012888,24.006104,23.99584,23.978642,23.97453,23.994764,23.999092,23.994686,23.977558,24.030602,22.853546
22.170996,24.131954,24.350992,24.089092,24.108974,24.127316,24.14452,24.15735,24.158386,24.160103,24.161135,24.169102,24.179508,24.19609,24.211277,24.230318,24.246208,24.265228,24.28078,24.293995,24.304298,24.31268,24.321112,24.327856,24.336393,24.34316,24.3514,24.356733,24.362642,24.36564,24.369856,24.372622,24.375172,24.376028,24.377317,24.378054,24.378902,24.379013,24.37837,24.376772,24.374866,24.37259,24.37092,24.368893,24.367422,24.364838,24.36256,24.358768,24.355764,24.350996,24.34733,24.342442,24.339117,24.33439,24.33082,24.326542,24.323212,24.319351,24.315367,24.310385,24.304684,24.29983,24.293716,24.288387,24.281103,24.275326,24.267906,24.263031,24.256165,24.251358,24.245089,24.2411,24.235313,24.230955,24.224726,24.219542,24.213346,24.207817,24.20131,24.194553,24.187973,24.180464,24.174032,24.165678,24.158812,24.149656,24.142857,24.134657,24.129816,24.123243,24.118937,24.11223,24.107046,24.099957,24.094007,24.08421,24.074247,24.062008,24.050333,24.038496,24.027845,24.020964,24.010757,23.994135,23.990124,24.009514,24.013813,24.010405,23.992373,24.04139,22.887129
22.233921,24.124891,24.340515,24.090816,24.111557,24.130545,24.14789,24.161055,24.162483,24.16466,24.165949,24.174217,24.184782,24.201607,24.21696,24.23614,24.252075,24.271173,24.286755,24.299934,24.310116,24.318342,24.326553,24.333113,24.341412,24.347977,24.356024,24.361269,24.367094,24.370062,24.374237,24.376984,24.379555,24.380455,24.381767,24.382517,24.383385,24.383524,24.38293,24.381392,24.379528,24.377295,24.375664,24.373705,24.372297,24.369793,24.367565,24.363844,24.360884,24.356188,24.352573,24.347761,24.344494,24.339836,24.3363,24.332062,24.328754,24.324957,24.321045,24.316132,24.310516,24.305744,24.299782,24.294624,24.287565,24.281939,24.274721,24.269993,24.263334,24.258678,24.252571,24.248663,24.242987,24.238707,24.232582,24.22748,24.221384,24.215937,24.209518,24.202856,24.196362,24.18894,24.182577,24.174307,24.167498,24.158436,24.15171,24.143616,24.138855,24.132366,24.1281,24.12151,24.116453,24.1096,24.103878,24.094383,24.084698,24.072826,24.061487,24.049976,24.039509,24.032587,24.022388,24.006067,24.002035,24.020836,24.025112,24.02239,24.003399,24.04895,22.913168
22.319208,24.11695,24.327677,24.093683,24.115448,24.135273,24.152874,24.166527,24.168457,24.171186,24.172747,24.181301,24.19198,24.208992,24.224464,24.243687,24.259575,24.278645,24.294151,24.30721,24.317183,24.325169,24.333078,24.339405,24.347424,24.353765,24.361612,24.366783,24.372557,24.375526,24.379707,24.382471,24.385122,24.386116,24.387518,24.388313,24.389238,24.389431,24.388935,24.387487,24.385683,24.383497,24.38191,24.379995,24.378635,24.376171,24.373964,24.370224,24.36722,24.362549,24.35901,24.35425,24.35099,24.346424,24.342999,24.338825,24.335554,24.33184,24.328033,24.32322,24.317736,24.31309,24.30735,24.302433,24.295683,24.290258,24.283314,24.278778,24.272385,24.267916,24.262,24.258173,24.252598,24.248367,24.24229,24.237204,24.231113,24.225668,24.219242,24.212576,24.20609,24.198708,24.19239,24.184198,24.177443,24.16848,24.16185,24.153885,24.149212,24.142807,24.138565,24.132082,24.127163,24.120564,24.115108,24.105953,24.096579,24.085093,24.074104,24.062963,24.052711,24.045744,24.03556,24.019577,24.015574,24.033792,24.03815,24.036276,24.015987,24.057047,22.945099
22.39095,24.112038,24.318518,24.09725,24.119705,24.14015,24.158012,24.172102,24.174433,24.177582,24.179337,24.188068,24.198792,24.215904,24.23144,24.250645,24.266447,24.285444,24.300854,24.313787,24.323566,24.331337,24.338984,24.345125,24.352922,24.35909,24.366783,24.371902,24.377657,24.380644,24.384855,24.387646,24.390387,24.391489,24.392992,24.393845,24.39483,24.395079,24.394678,24.393318,24.391571,24.38943,24.387873,24.386,24.384676,24.382252,24.38006,24.376352,24.373379,24.368795,24.365358,24.360662,24.357397,24.352839,24.349415,24.345263,24.342031,24.338366,24.334625,24.329876,24.324486,24.319931,24.314362,24.30965,24.303164,24.297913,24.291199,24.28682,24.280655,24.276354,24.270588,24.266811,24.261292,24.257074,24.250988,24.245861,24.239717,24.234211,24.227724,24.22101,24.214495,24.207117,24.20084,24.192709,24.185995,24.177109,24.170547,24.162668,24.15804,24.151655,24.147402,24.140957,24.136103,24.129677,24.124416,24.115519,24.106373,24.095161,24.084417,24.073553,24.063463,24.056446,24.04622,24.030396,24.02633,24.044096,24.048487,24.047216,24.025517,24.062315,22.972187
22.457815,24.108213,24.310852,24.101746,24.124756,24.145683,24.163774,24.178259,24.180962,24.184523,24.18648,24.195406,24.206188,24.223438,24.23907,24.25831,24.274073,24.293055,24.308414,24.32126,24.330877,24.338442,24.345835,24.351797,24.359358,24.365316,24.372805,24.377836,24.383524,24.386503,24.390692,24.393457,24.396244,24.397432,24.399002,24.39989,24.400902,24.40117,24.400839,24.399563,24.397867,24.395782,24.39427,24.392502,24.391287,24.389051,24.386986,24.383644,24.381073,24.376884,24.373596,24.36908,24.365875,24.361034,24.357208,24.35295,24.349823,24.346172,24.342434,24.337694,24.33234,24.32781,24.322365,24.31783,24.31159,24.306517,24.30004,24.295826,24.289915,24.2858,24.280212,24.27649,24.271048,24.266867,24.260817,24.2557,24.249567,24.244076,24.237621,24.230967,24.224518,24.217241,24.211063,24.203047,24.196419,24.187614,24.181093,24.17324,24.168613,24.162195,24.157887,24.151436,24.146633,24.140396,24.13538,24.12681,24.11797,24.10713,24.096708,24.086187,24.076271,24.069185,24.058842,24.043125,24.03884,24.055923,24.06021,24.05957,24.036453,24.068789,23.003073
22.517696,24.107964,24.307291,24.108616,24.131697,24.152704,24.170982,24.185806,24.188799,24.192673,24.19478,24.203835,24.214647,24.232004,24.247728,24.266987,24.282705,24.301676,24.316998,24.329782,24.339247,24.346611,24.353762,24.359575,24.366938,24.37271,24.38003,24.384987,24.390646,24.393658,24.39785,24.400589,24.40341,24.404652,24.406263,24.40716,24.40815,24.408394,24.408089,24.406866,24.405209,24.403173,24.401716,24.400036,24.398884,24.39678,24.394814,24.391802,24.38962,24.38582,24.382694,24.378408,24.375332,24.370409,24.366371,24.362047,24.358967,24.355326,24.351599,24.346891,24.341576,24.337067,24.331705,24.3273,24.321247,24.316303,24.309996,24.305897,24.300175,24.296219,24.290787,24.287119,24.281744,24.277597,24.27159,24.266495,24.260387,24.254913,24.248491,24.241894,24.235521,24.228346,24.222267,24.214357,24.207813,24.199091,24.192623,24.184792,24.180151,24.173681,24.169313,24.162817,24.15801,24.15186,24.146982,24.138615,24.129978,24.119373,24.109148,24.098839,24.088976,24.081758,24.071165,24.055359,24.050623,24.066952,24.070793,24.070412,24.04464,24.070925,23.031876
22.574488,24.109861,24.306164,24.116812,24.139654,24.16051,24.17897,24.194122,24.197386,24.201527,24.203741,24.212881,24.223701,24.241142,24.256945,24.27619,24.291832,24.310762,24.326046,24.338755,24.348072,24.355225,24.36214,24.367825,24.375042,24.380692,24.387913,24.392847,24.398558,24.401669,24.40594,24.408705,24.411587,24.412882,24.414541,24.415443,24.416409,24.41662,24.416328,24.415146,24.413515,24.41154,24.410202,24.408587,24.40739,24.405184,24.403122,24.400038,24.397837,24.394108,24.391094,24.386995,24.384098,24.37969,24.376137,24.371937,24.368681,24.364973,24.361256,24.356623,24.351425,24.34698,24.341707,24.337404,24.33148,24.326624,24.320414,24.31636,24.310738,24.306875,24.301538,24.297918,24.292574,24.28843,24.282421,24.277317,24.271185,24.265673,24.259182,24.252537,24.246153,24.238998,24.232933,24.225065,24.218552,24.209906,24.203524,24.195765,24.191137,24.184652,24.18025,24.173698,24.16885,24.162653,24.157755,24.149382,24.140755,24.13016,24.119928,24.109634,24.099676,24.092245,24.08131,24.065304,24.06004,24.075693,24.078875,24.078407,24.048939,24.068012,23.054914
