18.592981,22.045927,23.708672,24.749153,24.504871,24.53703,24.543062,24.572788,24.590124,24.595392,24.589233,24.584848,24.578465,24.572126,24.568188,24.568027,24.572372,24.578096,24.58621,24.591518,24.60035,24.607443,24.613997,24.616184,24.617933,24.617924,24.618914,24.61977,24.62012,24.62003,24.619884,24.620022,24.620909,24.621426,24.620901,24.620262,24.620405,24.619417,24.618185,24.613253,24.607536,24.600592,24.59635,24.589605,24.584364,24.578192,24.574343,24.57125,24.569445,24.56624,24.56247,24.558527,24.554512,24.551678,24.548655,24.546476,24.543419,24.5411,24.537367,24.5346,24.528725,24.523289,24.515387,24.509377,24.500584,24.49363,24.485378,24.479149,24.47235,24.465933,24.457924,24.449444,24.44273,24.43485,24.42852,24.418404,24.409372,24.396091,24.386494,24.371235,24.359552,24.341183,24.327087,24.30957,24.29816,24.283031,24.271643,24.257504,24.24573,24.233187,24.221725,24.210598,24.199728,24.191545,24.182383,24.174828,24.167196,24.163813,24.157469,24.152006,24.140429,24.129728,24.114372,24.102087,24.073864,24.047516,24.036642,24.0276,23.997778,23.913204,24.350618,23.371727,20.10043,16.487318,14.900037,14.072798,14.017003,14.063688,14.029693,14.008097,14.010606,14.006153,13.999416,13.993924,13.992631,13.992546,13.994274,13.996138,13.997573,13.997725,13.99791,13.998143,14.002567,14.010954,14.021315,14.02638,14.0358925,14.045586,14.058902,14.067749,14.082115,14.093609,14.092934,14.081821,14.081022,14.087963,14.095023,14.101033,14.109596,14.111676,14.10094,14.087697,14.084751,14.083562,14.080523,14.077582,14.076417,14.074923,14.073566,14.072678,14.07263,14.074912,14.0782795,14.084882,14.09112,14.097506,14.101484,14.106545,14.110379,14.113951,14.116992,14.120117,14.123852,14.127491,14.131588,14.134593,14.137084,14.137813,14.1388645,14.139787,14.140836,14.141374,14.142286,14.143038,14.144421,14.1455965,14.146644,14.146954,14.146708,14.146037,14.145374,14.145257,14.145849,14.147086,14.148192,14.149538,14.150457,14.151428,14.151975,14.152375,14.152387,14.152629,14.152935,14.153149,14.153427,14.155232,14.158077,14.162812,14.167705,14.172275,14.175873,14.17887,14.181262,14.18312,14.184399,14.184778,14.185031,14.185162,14.185781,14.186514,14.187785,14.188826,14.1907425,14.192461,14.194939,14.196963,14.199812,14.201769,14.202928,14.202392,14.201054,14.198241,14.195592,14.190879,14.185969,14.179079,14.17412,14.166436,14.160515,14.15067,14.142865,14.130895,14.121843,14.109621,14.100966,14.089723,14.081585,14.072198,14.065837,14.060601,14.057423,14.054384,14.051848,14.049743,14.048154,14.04784,14.046666,14.045131,14.042076,14.0395155
18.629246,22.050135,23.704775,24.739384,24.496931,24.5289,24.534843,24.564814,24.58264,24.58832,24.582512,24.578396,24.572285,24.566206,24.562588,24.562683,24.567327,24.573244,24.581604,24.587091,24.59607,24.603193,24.60972,24.611832,24.613472,24.613354,24.614176,24.614859,24.615004,24.614735,24.614435,24.614454,24.615257,24.61568,24.615051,24.6143,24.614378,24.613348,24.61213,24.6072,24.601469,24.594582,24.59043,24.583849,24.578758,24.572725,24.568953,24.56595,24.564219,24.56111,24.557417,24.553503,24.54953,24.54676,24.543854,24.54179,24.53888,24.536654,24.533066,24.530418,24.524693,24.519337,24.511555,24.505625,24.496916,24.489998,24.481781,24.475574,24.468843,24.462507,24.454548,24.446138,24.439516,24.431797,24.425634,24.415709,24.406773,24.39364,24.384169,24.369078,24.357506,24.339258,24.325218,24.307835,24.296555,24.281578,24.270311,24.256357,24.244772,24.232466,24.221233,24.2103,24.199604,24.191559,24.182507,24.175022,24.167372,24.16392,24.157331,24.1516,24.139576,24.128513,24.112537,24.09975,24.071259,24.04492,24.033382,24.024,23.991533,23.912395,24.337406,23.431835,20.4018,16.929003,15.204155,14.228857,14.169929,14.224427,14.189792,14.168049,14.170884,14.165894,14.15817,14.152122,14.150891,14.150735,14.15246,14.15448,14.156172,14.156678,14.157009,14.156733,14.161102,14.170686,14.181861,14.186486,14.195157,14.204319,14.217104,14.2262125,14.2354,14.239229,14.238848,14.234669,14.235882,14.240754,14.246619,14.251772,14.259414,14.26071,14.249065,14.235029,14.231594,14.229889,14.226343,14.222743,14.221074,14.218973,14.217244,14.215848,14.215461,14.217467,14.220747,14.225407,14.229398,14.236007,14.241769,14.247239,14.25074,14.254189,14.257117,14.260166,14.26388,14.267529,14.271708,14.274831,14.277446,14.2782135,14.279341,14.280336,14.281478,14.282079,14.282955,14.283609,14.285012,14.28633,14.287643,14.288355,14.288752,14.288884,14.289148,14.289973,14.291284,14.293261,14.294924,14.2970495,14.298594,14.300605,14.30197,14.303857,14.305115,14.307368,14.309285,14.312275,14.314978,14.319908,14.325151,14.332648,14.33966,14.346622,14.35187,14.355839,14.358294,14.359842,14.360149,14.35965,14.358286,14.356935,14.355699,14.3553095,14.355087,14.355166,14.35588,14.356876,14.358507,14.359958,14.361686,14.362583,14.362737,14.361529,14.359618,14.356506,14.353684,14.349044,14.344313,14.337788,14.333151,14.325882,14.320222,14.310817,14.303411,14.291499,14.2821,14.2680855,14.257106,14.242813,14.232048,14.219363,14.21024,14.20227,14.196891,14.191845,14.187718,14.184522,14.18234,14.181805,14.181235,14.180607,14.179384,14.17839
18.679415,22.070278,23.704031,24.727234,24.488495,24.52069,24.526745,24.557138,24.575563,24.58177,24.576391,24.572598,24.566776,24.560968,24.557642,24.55795,24.562809,24.568848,24.577364,24.582966,24.592014,24.599123,24.605587,24.607615,24.609137,24.608921,24.609589,24.610123,24.610098,24.609692,24.609278,24.609222,24.609982,24.61036,24.60968,24.608875,24.608923,24.607887,24.60669,24.601803,24.5961,24.589304,24.585264,24.578888,24.573984,24.56815,24.564505,24.561644,24.560015,24.557035,24.553446,24.549587,24.545668,24.542961,24.540157,24.538197,24.535414,24.53326,24.529804,24.527273,24.52169,24.516424,24.508766,24.502922,24.494299,24.487413,24.479204,24.472979,24.466257,24.459932,24.451958,24.44355,24.436954,24.429323,24.423271,24.41348,24.404625,24.391619,24.382257,24.367325,24.355865,24.337753,24.32379,24.306541,24.295372,24.280525,24.269367,24.255564,24.244139,24.232023,24.220982,24.21023,24.199684,24.191748,24.182743,24.175278,24.167522,24.163929,24.157001,24.150938,24.13844,24.127043,24.110527,24.09734,24.068638,24.042358,24.030487,24.021173,23.98814,23.913116,24.318949,23.471886,20.658848,17.315712,15.470429,14.364018,14.301398,14.362025,14.3267765,14.305346,14.309163,14.303863,14.294857,14.288241,14.28725,14.287128,14.28888,14.2910595,14.292981,14.293702,14.294341,14.294527,14.299401,14.309407,14.320673,14.325032,14.333189,14.341969,14.354506,14.36417,14.368091,14.363821,14.3640175,14.367513,14.371276,14.374239,14.3790045,14.383259,14.389996,14.390549,14.378028,14.363369,14.359805,14.357933,14.353973,14.349795,14.347714,14.345113,14.343073,14.341238,14.340542,14.342225,14.345323,14.348372,14.350598,14.357528,14.36484,14.370549,14.373591,14.376849,14.379618,14.382531,14.386074,14.389526,14.393495,14.396487,14.3989935,14.3997135,14.400816,14.401816,14.403013,14.403691,14.404504,14.405006,14.406292,14.407611,14.409068,14.410092,14.410987,14.411762,14.412806,14.414338,14.415973,14.418395,14.420605,14.423622,14.425895,14.429071,14.43133,14.434808,14.43738,14.441707,14.445254,14.451037,14.456082,14.463584,14.470321,14.479075,14.486585,14.494245,14.499754,14.503576,14.505508,14.506648,14.506205,14.505025,14.502426,14.499935,14.4972315,14.495928,14.494412,14.493601,14.493133,14.493355,14.494029,14.494797,14.495334,14.495163,14.494301,14.49243,14.489956,14.486574,14.4836035,14.479126,14.47468,14.46875,14.464629,14.458226,14.453245,14.445044,14.438666,14.427932,14.419129,14.40482,14.392747,14.376992,14.3647,14.349688,14.338233,14.327879,14.320337,14.313253,14.307241,14.30261,14.299145,14.297753,14.296693,14.296058,14.295227,14.294691
18.746073,22.102581,23.704762,24.71147,24.478085,24.51073,24.516989,24.547853,24.566921,24.573757,24.568924,24.565552,24.560131,24.554688,24.55174,24.552319,24.557428,24.563583,24.57225,24.577961,24.58708,24.594175,24.600578,24.602528,24.60398,24.603716,24.604286,24.604733,24.604612,24.604147,24.603704,24.603653,24.60443,24.604822,24.604141,24.60331,24.60332,24.602251,24.601046,24.596153,24.590454,24.583717,24.579756,24.573572,24.568865,24.563238,24.559723,24.556995,24.555456,24.552603,24.5491,24.545277,24.541391,24.538738,24.536053,24.534218,24.53161,24.529568,24.52632,24.523977,24.51864,24.513538,24.506083,24.500357,24.491865,24.48503,24.476816,24.47053,24.463758,24.457386,24.449358,24.440918,24.43431,24.426731,24.420776,24.411127,24.40236,24.38949,24.380232,24.36545,24.3541,24.336103,24.3222,24.305061,24.293978,24.279257,24.26822,24.254614,24.243416,24.231586,24.22086,24.210417,24.200176,24.192474,24.183624,24.176228,24.168356,24.164585,24.157187,24.15066,24.137459,24.125544,24.108313,24.094654,24.065617,24.039366,24.027464,24.018652,23.98534,23.914673,24.301538,23.5136,20.917963,17.707129,15.746513,14.512536,14.4453335,14.510906,14.474824,14.453759,14.458869,14.4532995,14.442789,14.435528,14.434849,14.4349,14.436845,14.439363,14.441666,14.442286,14.443853,14.447765,14.455012,14.463021,14.471791,14.475937,14.483922,14.492291,14.504642,14.514663,14.516906,14.509895,14.509393,14.514274,14.5180855,14.520211,14.523938,14.527496,14.534738,14.5355625,14.521108,14.504291,14.500313,14.49835,14.4939785,14.489247,14.486764,14.483667,14.481322,14.479051,14.478042,14.479274,14.482062,14.485017,14.487354,14.494006,14.500889,14.506209,14.50905,14.512265,14.515112,14.518134,14.521535,14.524523,14.527889,14.530526,14.532703,14.533281,14.534177,14.535005,14.536023,14.536619,14.537331,14.53777,14.538865,14.540029,14.541543,14.542848,14.544151,14.545468,14.54711,14.549379,14.5517025,14.555061,14.558052,14.562332,14.565718,14.570534,14.573994,14.579264,14.583136,14.589361,14.59428,14.6022005,14.608881,14.6181135,14.625678,14.634782,14.642012,14.649564,14.654828,14.658284,14.659732,14.660521,14.65955,14.657928,14.654461,14.651143,14.647231,14.645083,14.642217,14.6403675,14.6382265,14.637121,14.636072,14.635703,14.635249,14.634682,14.633347,14.631241,14.628578,14.625205,14.622328,14.618165,14.61405,14.6087055,14.605087,14.599499,14.5951605,14.587962,14.582356,14.572407,14.563949,14.550603,14.539441,14.524629,14.512323,14.495334,14.480817,14.467628,14.457481,14.448043,14.439788,14.433373,14.428093,14.425369,14.423139,14.42199,14.420808,14.420179
18.834005,22.153473,23.708431,24.691666,24.466242,24.499704,24.506126,24.53748,24.557243,24.564796,24.560623,24.55776,24.552834,24.547861,24.54539,24.546268,24.551632,24.557884,24.56668,24.572504,24.581688,24.588764,24.59513,24.597048,24.598494,24.598244,24.59879,24.599188,24.599028,24.598557,24.59814,24.598146,24.598976,24.599426,24.598793,24.598007,24.598036,24.597002,24.595818,24.59099,24.585348,24.578741,24.5749,24.568954,24.564468,24.559095,24.555744,24.553175,24.551733,24.549017,24.54562,24.541853,24.538029,24.53545,24.532911,24.531235,24.528845,24.52694,24.523922,24.521772,24.516705,24.511782,24.504536,24.49892,24.490559,24.483784,24.475586,24.469255,24.462439,24.456013,24.447943,24.439476,24.432842,24.425274,24.419365,24.409794,24.401073,24.388277,24.379072,24.36438,24.353098,24.3352,24.321348,24.304289,24.29327,24.278635,24.267693,24.254246,24.243248,24.231653,24.221207,24.21107,24.201136,24.19368,24.184992,24.177652,24.16967,24.165741,24.157892,24.150898,24.136993,24.124556,24.106628,24.09252,24.063023,24.036705,24.02521,24.01751,23.985218,23.918146,24.280844,23.545568,21.162176,18.083982,16.015232,14.660087,14.588163,14.658036,14.6210575,14.600721,14.607733,14.602181,14.589996,14.58208,14.581804,14.582199,14.584503,14.587512,14.590296,14.590892,14.593541,14.60158,14.6114645,14.617284,14.623443,14.627552,14.635691,14.644,14.655719,14.664649,14.66813,14.663985,14.663699,14.666423,14.668976,14.670784,14.673956,14.676685,14.681387,14.680093,14.665932,14.65009,14.645853,14.643354,14.638741,14.633689,14.630943,14.627444,14.624787,14.621988,14.620554,14.620948,14.623022,14.626601,14.630196,14.636093,14.6412325,14.645737,14.648488,14.651608,14.654437,14.657422,14.660421,14.662687,14.665052,14.666965,14.668341,14.668444,14.66876,14.669221,14.669806,14.670169,14.670675,14.671056,14.67189,14.672812,14.674253,14.675727,14.677368,14.679175,14.681295,14.684243,14.687316,14.691718,14.69556,14.701151,14.705684,14.712033,14.716536,14.723236,14.728089,14.735566,14.741242,14.749905,14.756812,14.766047,14.773189,14.781404,14.787531,14.7939415,14.798197,14.800826,14.801611,14.801958,14.8005705,14.79867,14.794735,14.791012,14.786391,14.783677,14.779821,14.777158,14.7736025,14.771297,14.768665,14.767249,14.766072,14.765401,14.763868,14.761731,14.759079,14.755866,14.753185,14.749429,14.745718,14.741055,14.738,14.7333355,14.729744,14.723706,14.718982,14.71015,14.70241,14.691015,14.681834,14.669199,14.657952,14.640922,14.625133,14.610523,14.598495,14.587066,14.5765085,14.568224,14.560703,14.556166,14.551915,14.54956,14.546942,14.545411
18.922922,22.207651,23.713062,24.672192,24.455336,24.489702,24.496105,24.52789,24.548344,24.556608,24.553082,24.550726,24.546309,24.541847,24.539883,24.541061,24.546684,24.553045,24.562,24.567953,24.577229,24.584295,24.590668,24.592588,24.594078,24.593872,24.594404,24.59476,24.59455,24.594046,24.59363,24.593662,24.594501,24.594992,24.594398,24.593699,24.59381,24.592907,24.591812,24.587152,24.581654,24.575283,24.57164,24.566002,24.561754,24.556671,24.553513,24.551126,24.549803,24.547245,24.543987,24.540312,24.536589,24.534105,24.531742,24.530243,24.528065,24.526285,24.523447,24.521425,24.516539,24.511744,24.504623,24.49907,24.490793,24.484072,24.475927,24.469622,24.462816,24.456398,24.448353,24.439909,24.433283,24.425713,24.419804,24.410223,24.401491,24.38868,24.379465,24.36478,24.353514,24.335653,24.321848,24.304838,24.293854,24.27926,24.268356,24.254988,24.244081,24.232584,24.222252,24.21227,24.202501,24.195164,24.186539,24.179203,24.171137,24.167131,24.158993,24.151682,24.137302,24.124517,24.106075,24.0916,24.061617,24.035149,24.02418,24.017744,23.987068,23.922728,24.256945,23.56991,21.398294,18.451675,16.270962,14.7922735,14.716891,14.792423,14.75472,14.735304,14.74433,14.739006,14.725313,14.716835,14.716942,14.71768,14.720337,14.723788,14.726998,14.72792,14.7311945,14.740618,14.751621,14.757419,14.763346,14.767536,14.775818,14.784551,14.794623,14.800136,14.805517,14.807501,14.810004,14.811279,14.812759,14.813835,14.818101,14.8205805,14.815997,14.806725,14.797207,14.788862,14.784766,14.780827,14.776185,14.771108,14.768276,14.764471,14.761498,14.758079,14.756136,14.755052,14.755622,14.759525,14.76463,14.769862,14.77328,14.777067,14.779764,14.782657,14.785176,14.787726,14.790009,14.79155,14.7928705,14.793895,14.794124,14.793388,14.792846,14.792916,14.793027,14.793119,14.793353,14.793625,14.794224,14.794966,14.796279,14.797852,14.799896,14.802339,14.80508,14.808771,14.812548,14.817885,14.82254,14.829294,14.83483,14.842277,14.847332,14.854833,14.860284,14.8683605,14.874256,14.882453,14.888419,14.896347,14.902342,14.909448,14.914734,14.920041,14.923291,14.925103,14.925179,14.924971,14.923042,14.920784,14.9164095,14.912378,14.907267,14.904167,14.899715,14.8966055,14.8923025,14.889384,14.885966,14.884007,14.882247,14.881234,14.879349,14.877066,14.87437,14.87131,14.868791,14.865466,14.862253,14.858363,14.855895,14.852198,14.849382,14.844647,14.840973,14.833643,14.826974,14.817089,14.8089695,14.797268,14.786635,14.771462,14.757325,14.743455,14.730744,14.717799,14.704922,14.694857,14.685132,14.67881,14.6725025,14.66885,14.664697,14.6622305
19.036343,22.279007,23.719784,24.647713,24.441973,24.477488,24.483774,24.515902,24.537016,24.546005,24.54318,24.541359,24.537493,24.533604,24.532194,24.53369,24.53956,24.546005,24.555092,24.561172,24.570538,24.577597,24.583988,24.585941,24.587507,24.58738,24.587933,24.588257,24.588017,24.587494,24.587105,24.587194,24.588074,24.588634,24.588116,24.587551,24.587793,24.58706,24.586075,24.581621,24.576294,24.570202,24.566772,24.56145,24.557446,24.552654,24.54969,24.54747,24.546246,24.54383,24.540712,24.53715,24.53357,24.53121,24.529064,24.527784,24.525877,24.524263,24.521643,24.519764,24.51509,24.51044,24.503473,24.49798,24.489805,24.48316,24.47511,24.468866,24.462112,24.455738,24.447775,24.439411,24.43283,24.425285,24.41937,24.409777,24.40104,24.388218,24.378988,24.364326,24.3531,24.335331,24.321623,24.304718,24.293795,24.279268,24.26841,24.255136,24.244331,24.23292,24.222704,24.212898,24.203337,24.196163,24.187653,24.180351,24.172266,24.168243,24.159874,24.152258,24.137405,24.124262,24.10528,24.090406,24.059767,24.033026,24.022873,24.018179,23.989845,23.928152,24.230923,23.591375,21.635471,18.828259,16.54377,14.946952,14.867093,14.946867,14.908305,14.890165,14.901863,14.89702,14.881567,14.872442,14.872996,14.874272,14.877519,14.88165,14.885468,14.887048,14.890962,14.901001,14.9126835,14.919151,14.925641,14.930023,14.93854,14.947744,14.956726,14.959656,14.967082,14.974544,14.979683,14.979821,14.980808,14.981288,14.983743,14.983234,14.971794,14.958292,14.953327,14.951214,14.947213,14.94197,14.937305,14.932181,14.929246,14.9250765,14.92172,14.917491,14.914794,14.912812,14.912868,14.916326,14.921199,14.925143,14.927144,14.930092,14.932515,14.934981,14.937012,14.938989,14.940428,14.941162,14.941289,14.9412365,14.940168,14.938603,14.937089,14.936583,14.936018,14.93574,14.9355955,14.935716,14.936089,14.936698,14.9378605,14.939449,14.941799,14.944717,14.947847,14.951991,14.9562235,14.962184,14.967423,14.974824,14.980746,14.988651,14.994005,15.00194,15.0077305,15.016005,15.02181,15.0290165,15.033592,15.039669,15.044136,15.049706,15.053815,15.057588,15.0594845,15.060271,15.059517,15.058641,15.056132,15.053525,15.048893,15.044797,15.039537,15.036273,15.031568,15.028262,15.023753,15.020724,15.017095,15.014923,15.012799,15.011449,15.009242,15.00676,15.003921,15.000837,14.998292,14.99518,14.99229,14.989072,14.987213,14.984532,14.98251,14.979151,14.976593,14.971043,14.965758,14.957654,14.950713,14.9401865,14.930491,14.917865,14.906168,14.893732,14.8811455,14.867807,14.853732,14.8426285,14.831041,14.822854,14.814139,14.808919,14.802608,14.798622
19.129026,22.337713,23.725327,24.62759,24.430916,24.467371,24.473558,24.505856,24.527359,24.53682,24.534468,24.532974,24.529444,24.525925,24.524872,24.526564,24.532558,24.539013,24.548141,24.554298,24.563694,24.57074,24.577135,24.579096,24.580719,24.580647,24.581215,24.581524,24.581259,24.580734,24.58038,24.580528,24.581455,24.582088,24.581642,24.581188,24.58152,24.58089,24.579964,24.575619,24.570398,24.564459,24.56115,24.556007,24.552141,24.547523,24.544666,24.542528,24.541346,24.539,24.535967,24.532486,24.529015,24.526756,24.524773,24.523668,24.521982,24.520508,24.518078,24.516335,24.51185,24.507336,24.500511,24.495096,24.48703,24.480463,24.472496,24.46631,24.45961,24.453281,24.445393,24.437103,24.430574,24.423063,24.417166,24.407589,24.398872,24.386078,24.376867,24.362259,24.351105,24.333466,24.319876,24.303093,24.292244,24.277805,24.267015,24.25385,24.24316,24.23186,24.221786,24.21218,24.202854,24.195885,24.187551,24.180336,24.172297,24.168303,24.159784,24.151934,24.13668,24.123209,24.103773,24.088568,24.057302,24.030226,24.020758,24.017529,23.9909,23.93124,24.21359,23.6067,21.794302,19.084133,16.740137,15.071684,14.98753,15.068342,15.029056,15.012027,15.026041,15.021632,15.004668,14.994999,14.9959545,14.997778,15.001636,15.006502,15.01091,15.012876,15.017232,15.028154,15.040672,15.047453,15.054124,15.058559,15.067514,15.077384,15.087128,15.090448,15.098322,15.106023,15.111364,15.111531,15.113102,15.113469,15.110289,15.10423,15.095213,15.086949,15.082462,15.079228,15.075036,15.069619,15.064815,15.059453,15.056315,15.051748,15.048047,15.043083,15.039615,15.038243,15.039808,15.041995,15.044033,15.046345,15.048059,15.050369,15.052353,15.054398,15.056061,15.057683,15.058591,15.058759,15.057972,15.0569935,15.055068,15.053255,15.05124,15.050212,15.0490675,15.048498,15.048052,15.048058,15.048321,15.048903,15.049995,15.051555,15.053972,15.056965,15.060035,15.064132,15.06841,15.074534,15.080039,15.087533,15.09321,15.101078,15.106689,15.114952,15.120949,15.129372,15.135167,15.141987,15.145968,15.151174,15.154783,15.159215,15.16222,15.164682,15.165436,15.165393,15.163949,15.162462,15.159394,15.156435,15.151577,15.147476,15.142194,15.138884,15.134069,15.1306505,15.126251,15.123475,15.120009,15.1178465,15.115635,15.114113,15.111733,15.109057,15.1059675,15.102608,15.099782,15.096508,15.09355,15.090669,15.089332,15.08752,15.086135,15.083897,15.082271,15.078112,15.073864,15.067251,15.061424,15.052241,15.043472,15.031974,15.021017,15.008989,14.996712,14.984178,14.970703,14.959811,14.947468,14.937987,14.927413,14.921009,14.91276,14.907186
19.245523,22.40947,23.732155,24.602638,24.416838,24.454252,24.460266,24.49261,24.51446,24.524414,24.522644,24.52161,24.518578,24.515558,24.514982,24.516937,24.523127,24.529625,24.538818,24.545046,24.554497,24.561548,24.567982,24.569988,24.571701,24.57171,24.57235,24.57269,24.572454,24.571976,24.571728,24.572014,24.573051,24.573816,24.573488,24.573177,24.573618,24.573097,24.572208,24.567965,24.56285,24.55707,24.553877,24.548916,24.545183,24.540716,24.537947,24.535856,24.534678,24.532364,24.52938,24.525965,24.522608,24.520462,24.518682,24.517788,24.516382,24.515099,24.512932,24.511372,24.507143,24.502804,24.496164,24.490822,24.48288,24.476395,24.46851,24.46237,24.455711,24.449442,24.441683,24.433538,24.42711,24.419703,24.413877,24.40441,24.395788,24.383116,24.373972,24.359516,24.3485,24.3311,24.317707,24.30115,24.290422,24.276144,24.265472,24.25248,24.241957,24.230824,24.220957,24.211622,24.202606,24.19588,24.187757,24.180658,24.172672,24.168695,24.159975,24.151834,24.136127,24.122313,24.10235,24.08676,24.054968,24.027775,24.019226,24.017744,23.993473,23.93638,24.196533,23.624468,21.96389,19.36313,16.970322,15.236668,15.146553,15.226227,15.186004,15.170073,15.186584,15.182751,15.164318,15.154003,15.155206,15.157611,15.162232,15.167799,15.172915,15.176255,15.181696,15.192671,15.205028,15.212108,15.219212,15.22417,15.232649,15.240835,15.25059,15.255941,15.264778,15.271827,15.276959,15.277288,15.279503,15.279753,15.270659,15.258758,15.252318,15.249363,15.244626,15.2395115,15.235024,15.229519,15.22454,15.21894,15.215625,15.210724,15.206737,15.201168,15.1970825,15.195997,15.198491,15.199457,15.199186,15.200178,15.201656,15.203244,15.204611,15.206099,15.207371,15.20875,15.209274,15.208839,15.207362,15.20602,15.203606,15.201433,15.19872,15.1970415,15.195167,15.19422,15.193377,15.193224,15.193319,15.19384,15.1948395,15.196352,15.198785,15.201768,15.204696,15.20857,15.212736,15.218527,15.223637,15.230215,15.234812,15.241754,15.247173,15.255306,15.261297,15.269602,15.275233,15.281505,15.284826,15.289096,15.291814,15.295005,15.296792,15.2978115,15.297361,15.296467,15.294573,15.292887,15.28993,15.287171,15.282821,15.279249,15.274521,15.271451,15.266951,15.263731,15.259662,15.257134,15.253867,15.25173,15.249468,15.247816,15.245319,15.242502,15.23921,15.235624,15.232599,15.229164,15.226115,15.223214,15.221912,15.220213,15.218935,15.216853,15.215288,15.211953,15.208798,15.203697,15.199058,15.191462,15.1839075,15.173816,15.163815,15.152431,15.140658,15.129118,15.116405,15.105799,15.092864,15.082334,15.070122,15.062569,15.052555,15.045636
19.326954,22.458248,23.736828,24.585407,24.406832,24.444736,24.450594,24.48289,24.504923,24.515196,24.513865,24.513224,24.510637,24.508028,24.507849,24.510023,24.516396,24.522974,24.532251,24.53852,24.548027,24.555107,24.561602,24.563663,24.565462,24.565546,24.566277,24.56668,24.566505,24.5661,24.565973,24.566408,24.567549,24.568422,24.568182,24.567966,24.568474,24.568007,24.567122,24.562925,24.557873,24.552187,24.549065,24.544209,24.540554,24.536165,24.533422,24.531336,24.53013,24.527798,24.524813,24.52141,24.51811,24.516026,24.514385,24.513634,24.512428,24.51129,24.509325,24.50791,24.503878,24.499674,24.493149,24.48784,24.479956,24.47351,24.465649,24.459509,24.452847,24.446606,24.438944,24.430933,24.424595,24.41729,24.411562,24.40223,24.39372,24.381191,24.37213,24.357824,24.346937,24.329746,24.316519,24.300148,24.289532,24.275396,24.264826,24.251986,24.241596,24.230614,24.220919,24.211796,24.203,24.196423,24.188417,24.181389,24.173407,24.169397,24.160496,24.15213,24.136127,24.122116,24.101831,24.085995,24.053982,24.026876,24.019102,24.018951,23.996649,23.941547,24.187263,23.637472,22.073738,19.545897,17.128487,15.358081,15.263414,15.341248,15.300356,15.284962,15.302888,15.29944,15.280261,15.269519,15.270718,15.273429,15.278539,15.284381,15.289935,15.29484,15.301418,15.311724,15.323145,15.330363,15.337912,15.343685,15.350809,15.355369,15.363938,15.371709,15.382133,15.389046,15.394152,15.394433,15.396888,15.397112,15.385866,15.371441,15.364207,15.3615675,15.356726,15.351475,15.346787,15.341093,15.336033,15.330377,15.327043,15.322062,15.3179865,15.312237,15.308007,15.306252,15.307967,15.308607,15.308528,15.3093605,15.310507,15.311603,15.312512,15.313623,15.314714,15.316128,15.316591,15.315698,15.314049,15.313198,15.310947,15.308365,15.305023,15.302906,15.300521,15.299303,15.298174,15.297905,15.29784,15.298279,15.299211,15.300711,15.303167,15.306163,15.309066,15.312794,15.316865,15.32208,15.326358,15.331517,15.334804,15.3404875,15.345416,15.353173,15.359117,15.367277,15.372778,15.378606,15.381422,15.385025,15.387152,15.389547,15.390571,15.390646,15.38945,15.388008,15.386105,15.384804,15.382709,15.3807125,15.377441,15.374711,15.37085,15.368163,15.364228,15.361415,15.357603,15.355038,15.351731,15.349526,15.347185,15.345475,15.342939,15.340114,15.336813,15.333253,15.330308,15.326903,15.323884,15.320645,15.318797,15.316286,15.3144655,15.311343,15.308788,15.305298,15.302898,15.298734,15.294872,15.288393,15.281797,15.272928,15.263836,15.253102,15.241607,15.230333,15.217596,15.206782,15.193341,15.182333,15.169387,15.161222,15.150568,15.143379
19.430859,22.517042,23.742186,24.563816,24.39409,24.432568,24.438234,24.470398,24.492575,24.503178,24.50235,24.502182,24.50014,24.498018,24.498306,24.500738,24.507328,24.51401,24.523384,24.529703,24.539274,24.546394,24.552967,24.555101,24.55699,24.557135,24.557947,24.558426,24.558317,24.557999,24.55804,24.558678,24.559988,24.561052,24.560972,24.560944,24.561579,24.561234,24.560385,24.556282,24.551323,24.54577,24.542746,24.538023,24.534466,24.530176,24.527483,24.525423,24.52421,24.521875,24.518911,24.515558,24.512367,24.510387,24.508934,24.508358,24.5074,24.50645,24.504723,24.50346,24.499647,24.495602,24.489233,24.483984,24.476208,24.469845,24.46207,24.455992,24.449394,24.443258,24.43578,24.427984,24.421797,24.414661,24.409077,24.399942,24.39159,24.37926,24.370314,24.356232,24.345533,24.328648,24.315657,24.299559,24.289095,24.275152,24.26471,24.252026,24.241768,24.230917,24.221369,24.21244,24.203854,24.197435,24.189571,24.182638,24.174706,24.170706,24.16167,24.153105,24.136814,24.122591,24.101858,24.085665,24.054031,24.027739,24.020355,24.02063,23.999996,23.946865,24.175898,23.650827,22.192848,19.752483,17.324457,15.526708,15.426572,15.500713,15.458936,15.443957,15.463323,15.460496,15.440875,15.429692,15.430647,15.433669,15.439427,15.445464,15.451657,15.45967,15.46841,15.476813,15.485753,15.493038,15.501244,15.507737,15.513789,15.515543,15.522335,15.530669,15.541317,15.548021,15.552996,15.553204,15.554957,15.55416,15.541129,15.525242,15.517521,15.515135,15.51031,15.505009,15.500165,15.494226,15.488956,15.483081,15.479617,15.474548,15.470459,15.464764,15.460646,15.458638,15.459914,15.460461,15.460572,15.461259,15.4620695,15.462794,15.463319,15.463912,15.464547,15.465653,15.465998,15.465138,15.463596,15.462901,15.460437,15.4573555,15.45327,15.450622,15.447608,15.446035,15.444517,15.444063,15.443743,15.444026,15.444801,15.446232,15.448647,15.451594,15.454391,15.4578705,15.461737,15.466297,15.469703,15.473546,15.475814,15.480173,15.484216,15.490737,15.495829,15.50285,15.507606,15.512552,15.514851,15.517782,15.51945,15.521318,15.521975,15.521635,15.520232,15.518784,15.517121,15.516062,15.5144825,15.513,15.510555,15.508527,15.505428,15.503107,15.499704,15.497269,15.493803,15.491346,15.488145,15.485948,15.4836035,15.481863,15.479321,15.476486,15.473155,15.469567,15.466626,15.463207,15.460207,15.456751,15.454544,15.451534,15.449406,15.445742,15.442704,15.438902,15.436538,15.432401,15.428633,15.422457,15.416397,15.408722,15.40091,15.391183,15.38036,15.369632,15.357304,15.346814,15.333662,15.322943,15.309907,15.301342,15.290009,15.282323
19.497538,22.552427,23.745161,24.550203,24.385962,24.424782,24.43032,24.462343,24.484547,24.495306,24.494759,24.49486,24.493134,24.49129,24.491835,24.494411,24.501123,24.50787,24.517303,24.523645,24.53326,24.540417,24.54704,24.549217,24.551144,24.551308,24.552155,24.552662,24.552578,24.55231,24.55245,24.553225,24.554665,24.555891,24.555943,24.556078,24.556833,24.556608,24.555817,24.551804,24.546913,24.541462,24.538513,24.533884,24.530388,24.526173,24.523523,24.521498,24.520304,24.517979,24.515053,24.511768,24.508677,24.506788,24.505466,24.505,24.504202,24.50338,24.501791,24.500603,24.496908,24.492952,24.486685,24.4815,24.473822,24.46754,24.459871,24.453884,24.447393,24.441376,24.434061,24.426435,24.42037,24.413363,24.407883,24.398882,24.390636,24.378431,24.369558,24.35563,24.345074,24.328403,24.315573,24.299664,24.28931,24.27549,24.265121,24.25252,24.242311,24.23149,24.221972,24.213102,24.204601,24.198252,24.190468,24.1836,24.175735,24.17179,24.162748,24.15413,24.137724,24.1234,24.102354,24.085901,24.055037,24.029808,24.022205,24.021736,24.00143,23.949059,24.168533,23.656809,22.254448,19.86647,17.446005,15.64427,15.540937,15.611849,15.569496,15.554584,15.574598,15.572273,15.552766,15.541431,15.542095,15.545301,15.551511,15.557561,15.564259,15.575252,15.586025,15.592361,15.598651,15.605905,15.614613,15.621286,15.627276,15.628911,15.634413,15.64093,15.650236,15.656862,15.66171,15.661849,15.662298,15.659981,15.646401,15.630879,15.623432,15.621338,15.616688,15.611425,15.606565,15.600457,15.594947,15.588789,15.585138,15.579996,15.575956,15.570497,15.566651,15.565038,15.566593,15.567286,15.567328,15.567889,15.568557,15.569239,15.569677,15.569891,15.570035,15.570634,15.5708475,15.57052,15.569288,15.568243,15.565242,15.561861,15.557337,15.554358,15.550942,15.549134,15.547344,15.546745,15.546226,15.546373,15.547007,15.548355,15.550703,15.553585,15.556264,15.559559,15.563251,15.567502,15.570558,15.57403,15.57623,15.580013,15.583298,15.588427,15.592325,15.597823,15.60163,15.605738,15.607805,15.610435,15.612032,15.613952,15.614853,15.614875,15.613938,15.613037,15.611706,15.610553,15.608768,15.607195,15.60477,15.602861,15.599935,15.597722,15.594468,15.5921335,15.588889,15.586633,15.583621,15.581501,15.57922,15.577482,15.574951,15.572092,15.568708,15.565033,15.561991,15.558509,15.555503,15.55213,15.55002,15.547218,15.545279,15.542022,15.539423,15.535406,15.53232,15.527265,15.522828,15.515928,15.509652,15.502475,15.495619,15.486693,15.476565,15.466365,15.45467,15.444873,15.432653,15.4228115,15.410364,15.4018135,15.390085,15.3818865
19.585293,22.596123,23.749447,24.533405,24.375376,24.414543,24.420301,24.452305,24.474579,24.48558,24.485426,24.485935,24.484686,24.483267,24.484201,24.486977,24.493874,24.50074,24.510256,24.516602,24.526201,24.533335,24.539951,24.542128,24.544024,24.544153,24.544998,24.54555,24.545525,24.545372,24.545692,24.546717,24.548399,24.54991,24.550198,24.55058,24.551497,24.55141,24.55067,24.546715,24.541859,24.53647,24.533571,24.529018,24.525589,24.52147,24.518892,24.516956,24.515837,24.513575,24.510708,24.5075,24.504501,24.502708,24.50149,24.501085,24.500376,24.49963,24.498146,24.497019,24.493427,24.489548,24.483383,24.47827,24.470707,24.464525,24.456951,24.451035,24.444641,24.43875,24.431625,24.42422,24.41832,24.411516,24.406235,24.397507,24.389477,24.377556,24.368876,24.355268,24.344975,24.32868,24.316114,24.30051,24.290329,24.276691,24.266426,24.253931,24.243795,24.23305,24.223629,24.214891,24.20655,24.200333,24.192696,24.185946,24.178164,24.174236,24.165096,24.156326,24.139658,24.12512,24.103573,24.086706,24.05651,24.032349,24.02437,24.023233,24.004223,23.953655,24.161129,23.666132,22.332924,20.013828,17.610611,15.810038,15.702402,15.768314,15.724949,15.710273,15.731646,15.729985,15.71014,15.697791,15.697351,15.70023,15.706826,15.712963,15.719883,15.731959,15.743312,15.748499,15.753467,15.76067,15.769572,15.776365,15.781931,15.782821,15.787137,15.792788,15.800573,15.805922,15.810132,15.810557,15.810544,15.80752,15.79341,15.777709,15.770292,15.768311,15.763476,15.757989,15.753083,15.746949,15.741361,15.735151,15.731478,15.726445,15.72257,15.717425,15.713861,15.712467,15.714054,15.714868,15.7150135,15.715552,15.716097,15.716709,15.717041,15.716984,15.716788,15.717012,15.717065,15.716981,15.715874,15.714596,15.7112255,15.707616,15.702748,15.699514,15.695735,15.693678,15.691576,15.6907835,15.689987,15.689921,15.690276,15.691379,15.69343,15.695987,15.698272,15.701089,15.704337,15.708001,15.710512,15.713354,15.715216,15.7183075,15.720929,15.724956,15.727971,15.732324,15.735406,15.738802,15.740596,15.742869,15.744306,15.746111,15.747062,15.747206,15.746497,15.7459,15.744789,15.743627,15.741801,15.740234,15.737945,15.736216,15.733573,15.731576,15.728635,15.726522,15.723672,15.721742,15.719116,15.717236,15.715204,15.713612,15.7112665,15.708541,15.705256,15.701617,15.698585,15.695045,15.69197,15.688463,15.686233,15.683263,15.681198,15.677827,15.675208,15.670825,15.667247,15.661628,15.656858,15.649684,15.643401,15.6363535,15.62985,15.621413,15.611992,15.602592,15.591877,15.582935,15.571625,15.56247,15.55043,15.541858,15.529808,15.521226
19.642015,22.621716,23.752377,24.5234,24.368578,24.407887,24.414074,24.446188,24.468534,24.479721,24.479843,24.480654,24.479763,24.478655,24.479877,24.48279,24.48982,24.496788,24.506357,24.512676,24.522213,24.529284,24.535831,24.537971,24.539787,24.539852,24.540667,24.54125,24.541285,24.541254,24.541727,24.54297,24.54487,24.546638,24.547127,24.547705,24.548744,24.548744,24.548025,24.544067,24.5392,24.53379,24.530884,24.52635,24.522957,24.518888,24.51637,24.51453,24.51349,24.511303,24.508484,24.505316,24.502356,24.500599,24.499393,24.498968,24.498228,24.497465,24.495987,24.494883,24.491322,24.487463,24.481342,24.476269,24.46878,24.46266,24.455124,24.449224,24.44287,24.437046,24.43003,24.422764,24.416962,24.410318,24.405209,24.396729,24.388884,24.377228,24.368736,24.35542,24.34535,24.329367,24.317009,24.301634,24.291576,24.278082,24.267883,24.255457,24.245369,24.234701,24.225378,24.216763,24.20856,24.20246,24.194944,24.188303,24.180574,24.176634,24.167368,24.15845,24.14154,24.12681,24.104866,24.08768,24.057705,24.034029,24.025702,24.02427,24.00669,23.957857,24.158136,23.673027,22.379997,20.105057,17.720459,15.927271,15.816784,15.878746,15.834542,15.820079,15.842636,15.841387,15.821014,15.807447,15.805777,15.808022,15.814705,15.82092,15.82766,15.838419,15.848649,15.854191,15.859819,15.866975,15.875653,15.8824005,15.887501,15.887625,15.891536,15.897562,15.904438,15.90813,15.91158,15.912439,15.912992,15.910434,15.896184,15.879978,15.872349,15.87021,15.864954,15.85913,15.854188,15.848188,15.842723,15.836706,15.833184,15.828389,15.824713,15.819808,15.816393,15.814998,15.816442,15.817342,15.817696,15.818335,15.818867,15.8194475,15.819728,15.81967,15.819463,15.819634,15.81958,15.819362,15.818146,15.816855,15.813474,15.809846,15.804939,15.801678,15.797796,15.795623,15.793355,15.792436,15.791443,15.791207,15.7913065,15.792146,15.793839,15.795998,15.797848,15.800172,15.802952,15.806088,15.808196,15.81056,15.812064,15.8147745,15.817193,15.820994,15.823889,15.828067,15.831023,15.83423,15.835878,15.837968,15.839272,15.840913,15.841741,15.841765,15.840985,15.840329,15.839225,15.838124,15.836405,15.834913,15.832751,15.831126,15.828693,15.8268795,15.824219,15.822308,15.819793,15.818133,15.815872,15.814259,15.812523,15.811135,15.809047,15.806528,15.803436,15.799925,15.796991,15.79343,15.790258,15.786494,15.784023,15.780645,15.778245,15.774361,15.771342,15.766638,15.763013,15.757413,15.752756,15.745821,15.739686,15.732311,15.725385,15.716867,15.707775,15.6989765,15.689026,15.680628,15.669742,15.660762,15.6488,15.640219,15.628133,15.61952
19.71664,22.653385,23.755339,24.509808,24.359211,24.398634,24.405273,24.437557,24.460117,24.471647,24.472216,24.473495,24.473112,24.472427,24.473999,24.477055,24.484196,24.491241,24.500805,24.507038,24.516449,24.523424,24.529892,24.532011,24.533758,24.533783,24.534626,24.535313,24.535494,24.535673,24.536398,24.537981,24.540232,24.542421,24.543243,24.544176,24.54545,24.545671,24.54505,24.541176,24.536324,24.53094,24.528036,24.52353,24.520172,24.516142,24.513653,24.511866,24.510878,24.508724,24.50593,24.502779,24.499853,24.498156,24.497013,24.496614,24.495918,24.495195,24.49381,24.492798,24.489359,24.485586,24.4796,24.474636,24.467318,24.461325,24.453901,24.448061,24.441795,24.436073,24.429186,24.422049,24.416317,24.409782,24.404787,24.39647,24.388746,24.377243,24.36885,24.355726,24.345833,24.33009,24.3179,24.302721,24.292774,24.27941,24.269295,24.256948,24.246923,24.236347,24.227158,24.218718,24.210728,24.204798,24.197489,24.191032,24.183447,24.179562,24.170227,24.161165,24.143995,24.129042,24.106592,24.08897,24.059383,24.036469,24.027716,24.025867,24.010202,23.963661,24.154121,23.682163,22.442842,20.227776,17.869823,16.087723,15.973057,16.029388,15.984239,15.969541,15.992708,15.991592,15.970869,15.956544,15.954138,15.955966,15.962651,15.968832,15.975422,15.985475,15.995088,16.000725,16.006592,16.013678,16.02215,16.028795,16.033415,16.032877,16.03619,16.042122,16.048252,16.050993,16.053719,16.0545,16.055847,16.054243,16.039352,16.021742,16.013443,16.011034,16.005281,15.999143,15.994164,15.988321,15.982986,15.977218,15.973896,15.969483,15.966155,15.961713,15.958591,15.957811,15.959817,15.961298,15.961929,15.962798,15.963356,15.963948,15.964168,15.964044,15.963711,15.963677,15.963419,15.963099,15.961818,15.960503,15.957092,15.953431,15.94849,15.945221,15.941227,15.938906,15.936414,15.935314,15.93407,15.9336195,15.9333935,15.933894,15.935133,15.936827,15.9382925,15.940044,15.942006,15.9442005,15.945715,15.947428,15.94848,15.950607,15.952627,15.955879,15.958405,15.962079,15.964705,15.967533,15.968975,15.97084,15.972032,15.973545,15.974335,15.974383,15.97371,15.973175,15.972234,15.971257,15.969723,15.968393,15.966467,15.965014,15.962896,15.961355,15.95909,15.957462,15.955402,15.954103,15.952315,15.951039,15.949665,15.948517,15.946741,15.944428,15.941428,15.937888,15.934937,15.931223,15.927843,15.923716,15.920937,15.917107,15.914383,15.909939,15.906447,15.90123,15.897354,15.891507,15.8867855,15.879902,15.87389,15.866443,15.859489,15.851227,15.842659,15.83447,15.825234,15.817387,15.807113,15.798625,15.787072,15.778623,15.766615,15.758014
19.76872,22.672384,23.756306,24.499943,24.352125,24.39156,24.398472,24.430895,24.453667,24.465485,24.466412,24.468061,24.468063,24.467693,24.469507,24.472652,24.479841,24.486916,24.496447,24.502607,24.511927,24.518839,24.525276,24.527418,24.529177,24.529228,24.530159,24.530981,24.531347,24.531744,24.532701,24.534584,24.537157,24.539736,24.540865,24.54214,24.543642,24.544096,24.543598,24.539837,24.535013,24.529655,24.526752,24.52226,24.518911,24.514881,24.512383,24.51059,24.509596,24.507435,24.504627,24.50145,24.498528,24.496862,24.495775,24.49541,24.494774,24.494099,24.492817,24.491907,24.488605,24.484922,24.479084,24.474236,24.46709,24.461233,24.45393,24.448156,24.441988,24.436348,24.42955,24.422476,24.416765,24.410242,24.405275,24.39698,24.389257,24.377752,24.369345,24.356247,24.3464,24.330732,24.318604,24.303501,24.293596,24.280298,24.270231,24.257936,24.247953,24.237436,24.228348,24.220047,24.212242,24.206459,24.199343,24.193066,24.185656,24.181873,24.172554,24.163425,24.146116,24.131025,24.108225,24.09029,24.060974,24.0386,24.029558,24.027437,24.013178,23.968258,24.151829,23.688839,22.485653,20.313734,17.979677,16.209612,16.091728,16.143543,16.09786,16.08271,16.105745,16.104456,16.08365,16.069233,16.066776,16.06845,16.074963,16.080957,16.087397,16.09729,16.10682,16.112494,16.11837,16.12537,16.133654,16.140123,16.144495,16.143793,16.146772,16.152374,16.158264,16.160994,16.163332,16.163675,16.165466,16.164623,16.149267,16.130573,16.121538,16.11871,16.112621,16.106369,16.101395,16.095684,16.090477,16.084942,16.081814,16.077774,16.074785,16.0708,16.067959,16.06805,16.070984,16.073225,16.07408,16.075216,16.075853,16.076513,16.076712,16.076553,16.076107,16.075882,16.07544,16.075043,16.07374,16.072433,16.069042,16.065392,16.060488,16.057272,16.053253,16.050842,16.048204,16.046972,16.045553,16.04496,16.0445,16.044758,16.045666,16.047014,16.0482,16.049475,16.050686,16.052057,16.053116,16.054365,16.055098,16.056786,16.058474,16.061262,16.06346,16.066694,16.069038,16.071556,16.07285,16.074574,16.075727,16.077202,16.078026,16.078182,16.077684,16.07733,16.076578,16.075722,16.074354,16.07319,16.07148,16.070166,16.068295,16.066961,16.06501,16.063604,16.061882,16.060844,16.059406,16.058374,16.05726,16.056276,16.054714,16.052557,16.04968,16.046194,16.043293,16.039503,16.035969,16.03155,16.02853,16.024273,16.021189,16.016216,16.012344,16.006664,16.002522,15.996369,15.991502,15.984525,15.9785595,15.971204,15.964447,15.956524,15.948355,15.940478,15.931593,15.924033,15.914227,15.90624,15.895201,15.886989,15.87522,15.866747
19.831312,22.692602,23.755901,24.487032,24.342743,24.382256,24.389383,24.421824,24.444675,24.456667,24.45787,24.459824,24.460205,24.4602,24.462343,24.465635,24.472956,24.48012,24.489735,24.495932,24.505291,24.512226,24.51878,24.521055,24.522987,24.52318,24.524332,24.525377,24.526045,24.526766,24.528059,24.530348,24.533342,24.536425,24.53795,24.539658,24.541447,24.542181,24.541828,24.538181,24.533384,24.528042,24.52514,24.520653,24.517305,24.513268,24.510763,24.50897,24.507978,24.50581,24.502989,24.499783,24.496855,24.49522,24.494162,24.493792,24.493162,24.492496,24.491287,24.490467,24.4873,24.483717,24.478046,24.473349,24.46643,24.46075,24.45361,24.447937,24.441908,24.436407,24.429773,24.422848,24.41723,24.410797,24.405916,24.397709,24.39003,24.37858,24.370203,24.357195,24.34744,24.331936,24.319944,24.304998,24.295189,24.281988,24.271973,24.259739,24.249807,24.239338,24.230347,24.222204,24.21463,24.209047,24.202202,24.19616,24.189009,24.185385,24.17613,24.16695,24.149508,24.134295,24.111143,24.09288,24.063786,24.041906,24.0326,24.030243,24.017271,23.973886,24.149681,23.697115,22.53392,20.413347,18.113293,16.36259,16.24112,16.287064,16.240196,16.224894,16.248934,16.248055,16.226917,16.212038,16.209152,16.210325,16.21647,16.221972,16.2281,16.237938,16.247566,16.25326,16.259037,16.265785,16.273872,16.280415,16.28467,16.28368,16.286175,16.291395,16.296757,16.299137,16.300985,16.300983,16.302073,16.300756,16.285973,16.268063,16.25835,16.254427,16.248075,16.241957,16.237053,16.231554,16.226547,16.221355,16.218504,16.214968,16.21243,16.208965,16.206358,16.207474,16.211573,16.214706,16.215765,16.217207,16.217976,16.218763,16.218988,16.218838,16.21831,16.217909,16.217287,16.216822,16.215504,16.214207,16.21085,16.207222,16.202368,16.199207,16.195162,16.192654,16.189848,16.188465,16.186846,16.186092,16.185434,16.185505,16.186234,16.187185,16.187534,16.187761,16.188148,16.188776,16.189411,16.190205,16.190588,16.19177,16.193075,16.195297,16.197079,16.19976,16.201744,16.203852,16.204933,16.206451,16.207533,16.20893,16.209763,16.209993,16.209648,16.209465,16.208893,16.208124,16.206898,16.205887,16.204407,16.203266,16.201675,16.200563,16.198965,16.197838,16.196505,16.195744,16.194677,16.193901,16.193066,16.192253,16.190725,16.188803,16.186766,16.184326,16.182196,16.178848,16.175394,16.17064,16.167278,16.161892,16.157465,16.151224,16.146921,16.14079,16.136477,16.130032,16.124966,16.117851,16.111897,16.104563,16.097954,16.090322,16.082584,16.075129,16.06677,16.059679,16.050531,16.043158,16.032803,16.024984,16.013609,16.005327
19.878576,22.703182,23.753523,24.47624,24.334572,24.374136,24.38134,24.413757,24.436659,24.448769,24.450182,24.452353,24.453045,24.45337,24.455837,24.45929,24.466782,24.47406,24.483837,24.490149,24.499666,24.5067,24.513474,24.515957,24.518166,24.518572,24.520004,24.5213,24.522287,24.523327,24.524935,24.52759,24.530962,24.534487,24.536366,24.538448,24.540478,24.541456,24.541225,24.537672,24.532892,24.527554,24.524637,24.520136,24.516779,24.51272,24.510191,24.508377,24.507366,24.505169,24.502304,24.499044,24.496063,24.494425,24.493345,24.492928,24.492254,24.491558,24.490377,24.489618,24.48655,24.483034,24.477497,24.472916,24.466183,24.460655,24.453646,24.44805,24.442144,24.436777,24.430296,24.423523,24.418009,24.41168,24.406898,24.398777,24.391146,24.37975,24.371412,24.35848,24.348799,24.333433,24.32156,24.306759,24.297031,24.283909,24.273924,24.26174,24.25185,24.241419,24.23251,24.224503,24.217138,24.211752,24.205172,24.199354,24.192461,24.189009,24.179855,24.17065,24.153135,24.137846,24.114475,24.095997,24.06697,24.045322,24.035854,24.033365,24.021065,23.97849,24.14828,23.703732,22.569841,20.490618,18.223227,16.492886,16.368515,16.410103,16.363625,16.348486,16.372322,16.371212,16.349932,16.33463,16.331284,16.33188,16.33757,16.342438,16.348213,16.35819,16.368116,16.373793,16.379353,16.385904,16.393538,16.399397,16.403492,16.403162,16.405876,16.410648,16.415459,16.417501,16.419016,16.418783,16.418013,16.41488,16.401352,16.385855,16.375996,16.37093,16.364502,16.35864,16.35384,16.34853,16.343708,16.338825,16.336227,16.333124,16.330954,16.328026,16.325771,16.32778,16.332752,16.336575,16.337801,16.339525,16.340452,16.341406,16.341698,16.341595,16.341026,16.34051,16.339767,16.339262,16.337954,16.336689,16.333397,16.329819,16.32505,16.321966,16.317932,16.315369,16.312456,16.310965,16.309223,16.308363,16.30752,16.307356,16.307821,16.3083,16.307753,16.307014,16.30682,16.306995,16.30733,16.307785,16.307909,16.30871,16.309727,16.311497,16.312935,16.315163,16.31686,16.318636,16.319546,16.320904,16.321945,16.3233,16.324158,16.324463,16.324245,16.32421,16.323767,16.323042,16.321888,16.320974,16.319658,16.318642,16.31724,16.316269,16.314915,16.313992,16.312925,16.312347,16.311523,16.310919,16.310255,16.309587,16.308199,16.306696,16.305672,16.304464,16.30328,16.300583,16.297384,16.29252,16.288992,16.28267,16.277018,16.269548,16.264772,16.258038,16.25339,16.246534,16.241251,16.23393,16.22792,16.220537,16.213993,16.20653,16.199093,16.19195,16.184048,16.177387,16.16887,16.162062,16.152382,16.144993,16.13419,16.126305
19.923845,22.70917,23.750027,24.465584,24.325928,24.365395,24.372723,24.405254,24.428402,24.440834,24.442648,24.445208,24.446354,24.447111,24.44999,24.453638,24.461336,24.468758,24.478714,24.48514,24.494812,24.50195,24.50895,24.51165,24.514128,24.514732,24.516441,24.517988,24.519304,24.520664,24.522585,24.5256,24.529367,24.533356,24.535603,24.538076,24.54036,24.541594,24.541504,24.538067,24.53331,24.52798,24.525051,24.520557,24.517212,24.513142,24.510588,24.508745,24.507702,24.50546,24.502527,24.49916,24.49607,24.494387,24.493254,24.492773,24.492037,24.491293,24.490135,24.48946,24.4865,24.483055,24.477642,24.473173,24.46662,24.461235,24.454334,24.44879,24.442991,24.437746,24.431406,24.424768,24.419342,24.413115,24.408436,24.400417,24.392828,24.38149,24.373194,24.360338,24.350723,24.335468,24.323692,24.308996,24.299322,24.286255,24.276293,24.264137,24.25429,24.243921,24.235142,24.227314,24.220211,24.215055,24.208775,24.203205,24.196575,24.193289,24.184198,24.174927,24.157276,24.141861,24.118225,24.099514,24.070513,24.049051,24.039377,24.036734,24.025162,23.983427,24.146503,23.71057,22.608685,20.574642,18.34294,16.634554,16.506039,16.54434,16.5022,16.487673,16.50768,16.504293,16.483294,16.467617,16.463764,16.463799,16.468996,16.472708,16.477678,16.488113,16.49885,16.50452,16.509737,16.516445,16.522795,16.52543,16.528702,16.531404,16.536074,16.540169,16.544287,16.545994,16.547258,16.546846,16.54343,16.537537,16.525206,16.512758,16.503374,16.497608,16.491146,16.48539,16.480679,16.475536,16.470875,16.466272,16.463905,16.461222,16.459381,16.457184,16.455626,16.458569,16.46417,16.468615,16.470098,16.472137,16.473223,16.474327,16.474659,16.474554,16.473867,16.47312,16.472187,16.47167,16.470432,16.469225,16.466028,16.462532,16.457901,16.45494,16.450953,16.44833,16.445356,16.44383,16.442152,16.441326,16.44014,16.439344,16.438862,16.438421,16.437243,16.436031,16.435394,16.435099,16.435041,16.435062,16.434912,16.435347,16.436108,16.43746,16.438566,16.440382,16.441824,16.443325,16.44411,16.445368,16.446417,16.447792,16.448736,16.449202,16.449186,16.449335,16.449045,16.448387,16.447317,16.446505,16.44532,16.44439,16.443134,16.442291,16.441153,16.4404,16.439594,16.439207,16.43865,16.438251,16.437744,16.437338,16.436863,16.436419,16.4361,16.435427,16.434778,16.432503,16.429506,16.424755,16.421309,16.414862,16.409046,16.400702,16.394873,16.386517,16.38063,16.372747,16.367199,16.359558,16.353455,16.345919,16.339361,16.332047,16.324945,16.318146,16.310787,16.30467,16.296957,16.290874,16.282005,16.274988,16.265057,16.258066
19.967161,22.713114,23.745804,24.45515,24.317787,24.3573,24.364664,24.397383,24.42091,24.433802,24.436136,24.439178,24.440857,24.442106,24.445448,24.44935,24.457304,24.464888,24.47506,24.481632,24.491526,24.498821,24.506115,24.509079,24.511894,24.512753,24.514791,24.516626,24.51829,24.519972,24.522192,24.525545,24.52967,24.534079,24.536642,24.539448,24.54194,24.54338,24.5434,24.54003,24.53526,24.529896,24.526918,24.522371,24.518988,24.51484,24.5122,24.510254,24.509111,24.506754,24.503687,24.500156,24.49691,24.495132,24.493914,24.493368,24.492554,24.491756,24.490599,24.48998,24.487091,24.483683,24.478334,24.47391,24.467453,24.462147,24.455282,24.449743,24.44399,24.438826,24.432592,24.426065,24.420721,24.414595,24.410017,24.402105,24.394567,24.383293,24.375042,24.362265,24.3527,24.337547,24.325865,24.311274,24.301664,24.288681,24.278776,24.266695,24.256926,24.246645,24.238007,24.230371,24.22353,24.2186,24.2126,24.207266,24.200909,24.197815,24.188833,24.179533,24.161804,24.146303,24.122482,24.103603,24.074589,24.05321,24.043325,24.040472,24.029148,23.987709,24.143457,23.716572,22.64921,20.661482,18.462896,16.774832,16.64353,16.680311,16.64352,16.629103,16.643469,16.636944,16.616692,16.600933,16.59671,16.596207,16.601038,16.604797,16.60996,16.620134,16.630474,16.635963,16.640959,16.647741,16.652884,16.6526,16.655155,16.660654,16.667072,16.670473,16.673864,16.67521,16.676224,16.675625,16.669046,16.65979,16.648615,16.639606,16.6311,16.624928,16.61847,16.61271,16.60805,16.60301,16.598455,16.594048,16.591854,16.589472,16.587788,16.586563,16.586267,16.589935,16.595356,16.600018,16.601847,16.60425,16.605562,16.60691,16.607363,16.607346,16.60666,16.60589,16.60491,16.604338,16.603104,16.601961,16.598886,16.595484,16.590994,16.588152,16.584236,16.581602,16.578518,16.576838,16.574945,16.573877,16.572145,16.570644,16.569103,16.567745,16.566092,16.564589,16.563576,16.562777,16.562235,16.561712,16.561247,16.561283,16.56177,16.562696,16.563473,16.56489,16.566109,16.56735,16.568012,16.569178,16.570238,16.571644,16.572693,16.573326,16.57351,16.573837,16.57368,16.573082,16.572075,16.57134,16.570251,16.56937,16.56822,16.567476,16.566467,16.565805,16.565128,16.564835,16.564417,16.564135,16.563688,16.563465,16.56376,16.564156,16.564198,16.563705,16.563324,16.56141,16.558731,16.55447,16.55145,16.545624,16.540386,16.532015,16.52557,16.516146,16.509333,16.50062,16.49478,16.486814,16.480595,16.472864,16.466246,16.459024,16.452168,16.445583,16.438599,16.432877,16.425785,16.420248,16.41211,16.405556,16.396572,16.390478
20.011072,22.720528,23.742498,24.444992,24.310595,24.350313,24.357576,24.390455,24.414358,24.427715,24.430588,24.43412,24.436327,24.438044,24.441847,24.446028,24.454256,24.461988,24.47238,24.479118,24.48927,24.496758,24.504395,24.507643,24.510859,24.512035,24.51448,24.516647,24.518694,24.52071,24.523252,24.526936,24.531404,24.536171,24.539,24.542068,24.544725,24.546309,24.54638,24.542997,24.538166,24.532686,24.529608,24.5249,24.521376,24.51702,24.514202,24.512024,24.51067,24.50808,24.504799,24.501055,24.497623,24.495728,24.494411,24.493801,24.492926,24.49209,24.490923,24.490334,24.487467,24.484072,24.47873,24.474293,24.467852,24.462568,24.45568,24.450111,24.44436,24.439234,24.433065,24.426626,24.421352,24.415312,24.410818,24.40299,24.395498,24.38428,24.37606,24.36333,24.353802,24.338747,24.327162,24.312702,24.303192,24.290352,24.280573,24.26865,24.259016,24.248854,24.240345,24.232899,24.226294,24.221548,24.215792,24.210657,24.20457,24.201698,24.192904,24.183647,24.16594,24.150425,24.126509,24.107521,24.07853,24.057217,24.047125,24.043978,24.03252,23.991003,24.139229,23.721558,22.690447,20.747377,18.575006,16.902447,16.770468,16.806433,16.772543,16.757463,16.767715,16.75909,16.739687,16.724144,16.7198,16.718836,16.723537,16.729355,16.736378,16.745108,16.753092,16.758228,16.763355,16.76982,16.774712,16.774439,16.777033,16.782583,16.78871,16.791643,16.794409,16.795347,16.796051,16.79524,16.785704,16.773329,16.76327,16.757465,16.749636,16.742908,16.736387,16.730602,16.725943,16.72096,16.716463,16.712194,16.710129,16.707933,16.706244,16.706207,16.70772,16.711828,16.716183,16.72058,16.722818,16.72559,16.72719,16.728848,16.729517,16.729689,16.729189,16.728758,16.727942,16.727152,16.725706,16.724611,16.721636,16.718285,16.713903,16.711163,16.707434,16.704966,16.701746,16.699688,16.696978,16.695084,16.692614,16.69069,16.688612,16.686796,16.684666,16.682661,16.681177,16.679785,16.678705,16.677576,16.676735,16.67629,16.676437,16.676874,16.677292,16.678288,16.67927,16.680208,16.680698,16.681717,16.68275,16.684153,16.685263,16.68601,16.68634,16.6868,16.686758,16.686203,16.685251,16.684584,16.683582,16.682756,16.681713,16.681068,16.680172,16.679562,16.678925,16.678637,16.678228,16.677952,16.677511,16.677277,16.677458,16.677841,16.678148,16.678076,16.677963,16.67648,16.674255,16.670687,16.668242,16.663183,16.658482,16.650812,16.64484,16.635988,16.629494,16.620707,16.61445,16.606152,16.59974,16.591782,16.585077,16.57793,16.57126,16.564783,16.557962,16.552408,16.545631,16.540346,16.53283,16.526972,16.518785,16.513098
20.066437,22.73258,23.738802,24.432474,24.302904,24.34343,24.350603,24.383713,24.407999,24.42184,24.425253,24.429266,24.431997,24.434193,24.438477,24.442959,24.451485,24.459385,24.470024,24.476955,24.487415,24.495142,24.503147,24.506695,24.510324,24.511822,24.514662,24.517132,24.519516,24.52181,24.524624,24.528582,24.53334,24.538412,24.541458,24.54474,24.547543,24.54923,24.54934,24.545925,24.541018,24.535437,24.532284,24.527449,24.523811,24.519304,24.516367,24.514042,24.512558,24.50981,24.506386,24.502512,24.498978,24.497013,24.495651,24.495003,24.494087,24.493216,24.49203,24.491432,24.488556,24.485144,24.479748,24.475256,24.468771,24.463465,24.456512,24.450878,24.445099,24.439999,24.43389,24.427551,24.422373,24.41646,24.412085,24.404388,24.396982,24.38588,24.377748,24.365133,24.355677,24.340788,24.329365,24.3151,24.305725,24.29306,24.283424,24.271675,24.262173,24.25209,24.243664,24.236362,24.229952,24.225363,24.219826,24.214865,24.209063,24.206457,24.19791,24.188734,24.171108,24.15562,24.131685,24.112644,24.083683,24.062405,24.052149,24.048655,24.036613,23.994505,24.133385,23.727016,22.74095,20.851227,18.70658,17.05067,16.920492,16.956425,16.92381,16.90661,16.912405,16.901587,16.883282,16.868114,16.86369,16.862183,16.866772,16.875587,16.885239,16.891785,16.896248,16.900797,16.906065,16.911936,16.916784,16.917444,16.920311,16.925022,16.93016,16.932629,16.934755,16.935272,16.935482,16.934298,16.922434,16.907722,16.898172,16.894463,16.88725,16.88038,16.873829,16.867956,16.863281,16.858326,16.853851,16.849665,16.847683,16.845612,16.843884,16.844843,16.8479,16.852364,16.855774,16.859966,16.862621,16.865849,16.867855,16.869974,16.871014,16.871532,16.871365,16.871393,16.870872,16.870022,16.868494,16.867474,16.864624,16.861376,16.857042,16.85429,16.8504,16.84772,16.844023,16.841476,16.837904,16.835255,16.832138,16.82987,16.827366,16.825132,16.822462,16.819834,16.817799,16.815704,16.81397,16.812115,16.810839,16.80984,16.809597,16.809475,16.809492,16.810009,16.810728,16.811323,16.811611,16.812447,16.81342,16.814777,16.815912,16.816736,16.817183,16.817743,16.817787,16.817268,16.816376,16.81578,16.814873,16.814108,16.813168,16.812609,16.811754,16.811121,16.810406,16.810024,16.809513,16.809155,16.80867,16.808325,16.808004,16.807882,16.807987,16.808002,16.808014,16.806976,16.805271,16.80255,16.8008,16.796705,16.792645,16.786083,16.781033,16.773409,16.767706,16.759422,16.753113,16.744892,16.738537,16.730665,16.724026,16.716957,16.710295,16.70373,16.696789,16.691168,16.684351,16.678974,16.671711,16.666365,16.658703,16.653204
20.114195,22.745329,23.736042,24.421743,24.297016,24.338648,24.345875,24.379221,24.403719,24.41784,24.421545,24.425827,24.428864,24.431353,24.435951,24.440624,24.449366,24.4574,24.468246,24.475336,24.486048,24.493956,24.502224,24.505955,24.509834,24.511507,24.51455,24.51715,24.51968,24.522089,24.525005,24.529089,24.533997,24.539236,24.542404,24.545816,24.548697,24.550455,24.55059,24.547176,24.542233,24.536657,24.533545,24.528723,24.525084,24.520615,24.517729,24.51548,24.514061,24.511364,24.507969,24.504139,24.500648,24.498732,24.497387,24.49674,24.495804,24.49491,24.493692,24.493088,24.490183,24.486746,24.48129,24.476751,24.470217,24.46488,24.457855,24.45216,24.446344,24.441254,24.435192,24.428947,24.423864,24.418083,24.413824,24.406282,24.398985,24.388037,24.38003,24.367575,24.358215,24.34352,24.332264,24.318188,24.308916,24.29637,24.286793,24.275122,24.265656,24.255562,24.247126,24.239866,24.233553,24.229048,24.223642,24.2188,24.213192,24.210783,24.202414,24.193293,24.175718,24.160248,24.13631,24.117247,24.088276,24.066975,24.056639,24.052916,24.040216,23.997406,24.128668,23.731487,22.782122,20.935297,18.811878,17.169044,17.041601,17.077757,17.044842,17.02504,17.027384,17.014791,16.997263,16.98229,16.977703,16.975452,16.979637,16.990658,17.002398,17.007257,17.00896,17.01296,17.018229,17.02361,17.02824,17.029242,17.032236,17.036678,17.041348,17.043459,17.045132,17.04536,17.0455,17.044418,17.031675,17.015821,17.005753,17.002213,16.995361,16.988882,16.982346,16.976353,16.971687,16.966764,16.962307,16.95817,16.956238,16.954271,16.952625,16.953825,16.957148,16.961878,16.9654,16.969831,16.972721,16.97634,16.978718,16.98128,16.982677,16.983557,16.983677,16.98396,16.983677,16.983036,16.981695,16.980747,16.978052,16.975027,16.970758,16.967901,16.963383,16.959917,16.95543,16.952505,16.948603,16.945854,16.942516,16.939999,16.93711,16.93443,16.9313,16.928177,16.925722,16.923096,16.920856,16.918453,16.916866,16.915485,16.914991,16.914486,16.914215,16.914398,16.914934,16.91532,16.915495,16.91623,16.917175,16.918509,16.919674,16.92057,16.9211,16.92172,16.921814,16.921337,16.920498,16.919966,16.919147,16.918444,16.917574,16.917057,16.916193,16.915503,16.914682,16.914202,16.913576,16.91315,16.912636,16.9122,16.911503,16.910856,16.910328,16.90998,16.910067,16.90948,16.908213,16.90618,16.904993,16.901619,16.89801,16.892185,16.88772,16.880821,16.875553,16.867863,16.861952,16.854212,16.848171,16.840687,16.834246,16.827196,16.820335,16.813522,16.80627,16.800446,16.793356,16.787682,16.780233,16.774912,16.767382,16.762028
20.170954,22.756489,23.731617,24.409071,24.29007,24.333069,24.34031,24.373919,24.398666,24.413158,24.41726,24.421879,24.425283,24.428123,24.433075,24.437956,24.44689,24.455023,24.466019,24.473234,24.48413,24.49218,24.500652,24.504534,24.508635,24.51047,24.513697,24.51642,24.519062,24.521555,24.52454,24.528719,24.533756,24.539154,24.542425,24.545969,24.54896,24.550821,24.551012,24.547611,24.542627,24.537018,24.533888,24.529121,24.525572,24.521177,24.518343,24.516216,24.51492,24.512325,24.509018,24.50528,24.501884,24.500044,24.498766,24.498158,24.497242,24.496344,24.495106,24.494478,24.491531,24.488052,24.482525,24.477932,24.471348,24.465998,24.458937,24.453226,24.447435,24.442417,24.43644,24.430317,24.42536,24.41974,24.41562,24.408245,24.401062,24.390284,24.382416,24.37014,24.36089,24.346405,24.335339,24.321478,24.312338,24.299944,24.290464,24.278912,24.269506,24.259405,24.250942,24.243723,24.237484,24.23305,24.227757,24.223001,24.217592,24.215408,24.207266,24.198235,24.18076,24.165335,24.14147,24.122458,24.093597,24.072376,24.062033,24.058088,24.044708,24.001127,24.122986,23.737085,22.832272,21.039553,18.946033,17.3226,17.198816,17.235312,17.202204,17.179346,17.177473,17.162838,17.14644,17.131836,17.127153,17.124996,17.129463,17.141598,17.153961,17.157375,17.157099,17.16052,17.165522,17.17027,17.174526,17.175749,17.178726,17.182793,17.186844,17.18848,17.189653,17.18967,17.188095,17.185001,17.172085,17.157463,17.147322,17.14325,17.136703,17.130766,17.12435,17.11831,17.113636,17.108679,17.104181,17.100008,17.098063,17.0961,17.094439,17.095886,17.099577,17.10471,17.108438,17.113169,17.116278,17.120285,17.12303,17.12603,17.127789,17.129034,17.129425,17.129854,17.129768,17.129452,17.128445,17.127686,17.125017,17.121881,17.117342,17.114246,17.109188,17.105204,17.100225,17.097116,17.093122,17.09043,17.087017,17.084318,17.081097,17.077986,17.074417,17.070797,17.067904,17.064705,17.061909,17.058884,17.056929,17.055077,17.054255,17.053267,17.052645,17.05239,17.052662,17.052694,17.052643,17.053116,17.053905,17.05505,17.056099,17.056934,17.057459,17.058046,17.058132,17.057669,17.056873,17.056377,17.055616,17.054947,17.054115,17.053638,17.052706,17.05188,17.050858,17.05022,17.049412,17.04887,17.04825,17.047712,17.046766,17.04574,17.044699,17.043837,17.04353,17.042757,17.041523,17.039688,17.038664,17.035648,17.032377,17.027124,17.02312,17.016895,17.012117,17.00528,17.000095,16.993227,16.987793,16.981043,16.975037,16.968199,16.961246,16.954285,16.946768,16.940752,16.93333,16.927294,16.919462,16.913952,16.906239,16.900805
20.206282,22.758776,23.727127,24.400671,24.285204,24.329088,24.336262,24.37003,24.394976,24.409798,24.414259,24.419163,24.422852,24.42596,24.431152,24.436157,24.44517,24.453306,24.464317,24.471552,24.482473,24.490547,24.499073,24.503012,24.507212,24.509144,24.512484,24.515282,24.517998,24.520536,24.523565,24.527794,24.532913,24.53841,24.541752,24.545397,24.548483,24.55046,24.550714,24.547335,24.54232,24.536663,24.533497,24.528807,24.525377,24.520971,24.51806,24.515957,24.514738,24.512203,24.508944,24.505247,24.501892,24.500086,24.49886,24.498295,24.497421,24.496544,24.49531,24.494667,24.491688,24.488184,24.482622,24.478003,24.47141,24.466078,24.459044,24.453379,24.447672,24.442757,24.436861,24.430826,24.425951,24.420435,24.416393,24.409105,24.401968,24.391266,24.383455,24.371258,24.362053,24.347668,24.336689,24.322939,24.31387,24.301586,24.2922,24.280756,24.271421,24.26135,24.252897,24.245712,24.239525,24.235123,24.229885,24.225164,24.219872,24.217821,24.209833,24.200878,24.183487,24.168106,24.14433,24.1254,24.096718,24.07564,24.06535,24.061295,24.047678,24.003786,24.119165,23.741024,22.866602,21.1121,19.041702,17.433607,17.312092,17.34876,17.316044,17.291464,17.286673,17.270744,17.255274,17.241076,17.236446,17.234852,17.239798,17.251547,17.263136,17.266232,17.26579,17.268946,17.273592,17.277964,17.281908,17.283098,17.285892,17.289677,17.293262,17.294533,17.29544,17.29549,17.291248,17.284771,17.272163,17.260397,17.250984,17.246407,17.240047,17.2344,17.228136,17.222134,17.217443,17.212412,17.207848,17.203588,17.20158,17.199533,17.19775,17.199493,17.203743,17.209244,17.212965,17.217808,17.22105,17.225254,17.22817,17.23137,17.23329,17.234709,17.235199,17.235592,17.235537,17.23542,17.234697,17.234228,17.231451,17.22781,17.222706,17.219341,17.21422,17.21042,17.205616,17.202595,17.198702,17.196047,17.19264,17.189877,17.186516,17.183207,17.179426,17.175547,17.172403,17.168856,17.16573,17.16231,17.160116,17.157938,17.156872,17.155554,17.154703,17.154142,17.15422,17.153952,17.153673,17.153872,17.15447,17.155365,17.15623,17.156921,17.157356,17.157856,17.157888,17.1574,17.156599,17.1561,17.15531,17.154608,17.15376,17.153305,17.152292,17.151323,17.150127,17.149374,17.148422,17.147797,17.147074,17.14649,17.14561,17.14465,17.143646,17.142477,17.141472,17.139862,17.138182,17.135881,17.13447,17.131227,17.128002,17.122854,17.118937,17.112995,17.108553,17.10239,17.097864,17.091814,17.086998,17.080967,17.07544,17.068968,17.06215,17.055267,17.04771,17.041641,17.034037,17.02779,17.019642,17.013906,17.005835,17.000132
20.257965,22.765285,23.724419,24.391798,24.280075,24.32458,24.331676,24.365538,24.390684,24.405823,24.410652,24.415857,24.41988,24.423319,24.42883,24.434013,24.44316,24.451332,24.462393,24.469671,24.480646,24.488749,24.497335,24.501335,24.505661,24.507717,24.511187,24.51407,24.516853,24.519424,24.522474,24.526743,24.531925,24.537502,24.540878,24.544594,24.547768,24.549839,24.55014,24.546764,24.541723,24.535738,24.53215,24.527275,24.523981,24.519863,24.517267,24.515331,24.514158,24.511724,24.508577,24.505005,24.501783,24.50009,24.49898,24.498503,24.49771,24.496876,24.495632,24.494946,24.491896,24.48834,24.482702,24.478031,24.471397,24.466059,24.459042,24.453438,24.44784,24.443052,24.437275,24.431366,24.42662,24.421253,24.417326,24.410162,24.403097,24.392519,24.384827,24.372784,24.363674,24.349499,24.338726,24.325218,24.316313,24.304249,24.295015,24.283756,24.274525,24.264463,24.255976,24.248795,24.242622,24.238228,24.233027,24.228317,24.223167,24.221321,24.213585,24.204777,24.187567,24.172287,24.148699,24.129936,24.101568,24.080727,24.070517,24.066256,24.052107,24.00758,24.114845,23.746298,22.907991,21.203463,19.169958,17.587742,17.468939,17.50563,17.474213,17.44786,17.439114,17.421528,17.4074,17.39301,17.38775,17.389908,17.399084,17.409115,17.416376,17.418333,17.41799,17.420708,17.424704,17.4282,17.431526,17.432865,17.435568,17.438915,17.44183,17.442642,17.442919,17.442593,17.435095,17.424837,17.412682,17.404263,17.395723,17.390507,17.384146,17.378658,17.372684,17.36689,17.362156,17.356958,17.352287,17.347872,17.345736,17.343521,17.34154,17.343657,17.34867,17.354637,17.358303,17.363235,17.366604,17.370985,17.374058,17.377436,17.379501,17.38109,17.38172,17.382181,17.382257,17.382446,17.381844,17.381178,17.37808,17.374218,17.368929,17.365498,17.360523,17.357006,17.35252,17.349693,17.346033,17.34351,17.340237,17.337494,17.334053,17.330559,17.326595,17.322445,17.319021,17.315044,17.311497,17.307549,17.304998,17.3023,17.30083,17.298943,17.2977,17.296566,17.296232,17.295393,17.294708,17.294403,17.294651,17.295115,17.295673,17.29611,17.296396,17.296757,17.296719,17.296227,17.295462,17.29499,17.294239,17.293575,17.29278,17.292377,17.291286,17.290167,17.288734,17.287786,17.286587,17.285784,17.284817,17.284058,17.283083,17.282066,17.28102,17.279587,17.278011,17.27578,17.273796,17.271229,17.269611,17.266323,17.263222,17.258337,17.254652,17.249039,17.244823,17.239006,17.234743,17.22897,17.224321,17.218536,17.21321,17.206898,17.200214,17.193493,17.186092,17.18015,17.172636,17.166441,17.158234,17.152372,17.144083,17.13821
20.29633,22.77263,23.725094,24.387474,24.277576,24.322096,24.329163,24.363014,24.388243,24.403503,24.408503,24.413849,24.418058,24.421703,24.427433,24.43275,24.442013,24.450241,24.46137,24.468699,24.47973,24.48786,24.496494,24.500534,24.50495,24.50709,24.510645,24.51357,24.51639,24.51896,24.52201,24.526276,24.531475,24.537062,24.540426,24.54414,24.547342,24.549429,24.549736,24.546339,24.541292,24.53487,24.530684,24.525461,24.522247,24.51858,24.516531,24.51481,24.513609,24.511265,24.50823,24.504787,24.501717,24.500145,24.499155,24.498762,24.498035,24.497234,24.495981,24.49524,24.492115,24.488504,24.482794,24.478067,24.471373,24.466,24.45898,24.45341,24.447868,24.443161,24.437462,24.43165,24.42701,24.421757,24.417912,24.410841,24.40383,24.393362,24.385773,24.37387,24.364859,24.350893,24.340315,24.327053,24.318314,24.306448,24.297344,24.286238,24.277077,24.267006,24.258451,24.251236,24.245035,24.240616,24.235401,24.23068,24.225628,24.223938,24.216417,24.20774,24.190699,24.17552,24.15211,24.133493,24.105389,24.084738,24.074581,24.070118,24.05544,24.010317,24.112467,23.74984,22.932823,21.26117,19.256475,17.69524,17.57803,17.6146,17.584597,17.55744,17.546011,17.527412,17.514309,17.498802,17.49207,17.499327,17.514767,17.522903,17.524588,17.525126,17.524998,17.527355,17.530777,17.53335,17.536085,17.537708,17.540506,17.543512,17.545942,17.54647,17.54614,17.54526,17.535847,17.52364,17.511765,17.505167,17.49711,17.491516,17.484968,17.479424,17.473713,17.468184,17.463408,17.45806,17.453304,17.448763,17.446516,17.444159,17.442034,17.444397,17.449924,17.4562,17.459806,17.464773,17.468197,17.472654,17.475792,17.47924,17.48137,17.48304,17.483782,17.484396,17.484642,17.485073,17.484339,17.483047,17.479591,17.475967,17.471014,17.467764,17.46304,17.459684,17.455425,17.452757,17.4493,17.446909,17.443796,17.441122,17.437674,17.434088,17.430038,17.42573,17.422134,17.417862,17.414028,17.409693,17.406876,17.403767,17.401968,17.399614,17.398046,17.39642,17.395714,17.394392,17.393381,17.39267,17.392632,17.392769,17.39311,17.393368,17.393557,17.393824,17.393757,17.393288,17.392584,17.39216,17.391499,17.390907,17.390198,17.38985,17.38874,17.387537,17.385937,17.384825,17.383406,17.382425,17.381208,17.380238,17.379026,17.377842,17.376665,17.375164,17.373533,17.371325,17.369415,17.367014,17.365547,17.362492,17.359549,17.354977,17.351576,17.346159,17.341932,17.335909,17.331326,17.32507,17.32,17.313799,17.30824,17.301767,17.295118,17.28853,17.281391,17.275677,17.268482,17.26258,17.254625,17.248835,17.24062,17.234798
20.351366,22.78388,23.727041,24.382423,24.275084,24.319517,24.326397,24.360126,24.385408,24.40078,24.40596,24.411459,24.415865,24.419724,24.425676,24.431131,24.440512,24.44879,24.459984,24.467361,24.478445,24.486597,24.495253,24.499304,24.503754,24.505924,24.509506,24.51244,24.515247,24.517784,24.52079,24.52504,24.530272,24.535894,24.539253,24.54297,24.546194,24.548311,24.54864,24.545214,24.54011,24.533457,24.52901,24.523508,24.520191,24.516747,24.515104,24.513693,24.51268,24.510502,24.507614,24.504362,24.5015,24.50009,24.499231,24.498909,24.498245,24.497484,24.49624,24.495478,24.492323,24.488699,24.482994,24.478287,24.471605,24.466242,24.459251,24.453724,24.448282,24.443687,24.438086,24.432383,24.427864,24.422762,24.419039,24.412115,24.405195,24.394886,24.387438,24.375748,24.366879,24.353193,24.342865,24.329906,24.32136,24.309723,24.300758,24.289835,24.280773,24.27071,24.26211,24.254894,24.24871,24.244328,24.239166,24.234463,24.229528,24.227999,24.2207,24.21217,24.195318,24.180258,24.157097,24.138714,24.11094,24.090511,24.080538,24.075918,24.060408,24.014368,24.110123,23.755356,22.964396,21.337309,19.376898,17.848783,17.7338,17.770018,17.742271,17.713684,17.697773,17.676533,17.664032,17.654408,17.654688,17.662313,17.67301,17.677677,17.677235,17.676725,17.676434,17.678204,17.6811,17.683374,17.68587,17.687395,17.689865,17.69247,17.694265,17.69437,17.692873,17.690777,17.680044,17.667215,17.655584,17.649822,17.641891,17.635973,17.62919,17.623539,17.617992,17.612616,17.607733,17.602169,17.597273,17.59253,17.590115,17.58746,17.58499,17.587503,17.593628,17.600151,17.603554,17.60838,17.611742,17.616144,17.61926,17.622665,17.62477,17.626438,17.62724,17.627958,17.628372,17.62903,17.628355,17.626814,17.623281,17.61987,17.615253,17.612232,17.607872,17.604794,17.60095,17.5986,17.595604,17.593576,17.590904,17.58856,17.585443,17.582094,17.578287,17.574133,17.570606,17.566277,17.562363,17.557734,17.554598,17.550888,17.54858,17.545439,17.543285,17.540695,17.539219,17.53687,17.535126,17.533474,17.532742,17.53204,17.531744,17.53136,17.531113,17.531069,17.53086,17.530357,17.529726,17.529379,17.528921,17.528566,17.5281,17.52786,17.526802,17.525562,17.52389,17.52269,17.521122,17.520002,17.518637,17.517548,17.516169,17.514805,17.513428,17.511711,17.509882,17.507467,17.50539,17.502851,17.50132,17.498259,17.495356,17.490932,17.487701,17.48246,17.478312,17.47232,17.46769,17.461338,17.456167,17.449892,17.444323,17.43787,17.431322,17.42489,17.417969,17.41243,17.40545,17.39975,17.391945,17.38618,17.377964,17.372128
20.391247,22.79282,23.729414,24.379791,24.27417,24.318409,24.325047,24.358606,24.38388,24.399288,24.40456,24.410137,24.41464,24.418596,24.42465,24.430174,24.439615,24.447916,24.459139,24.466536,24.47764,24.4858,24.494446,24.498472,24.502884,24.50502,24.508564,24.511465,24.514221,24.516712,24.519665,24.523893,24.529152,24.534811,24.538172,24.541885,24.545118,24.547245,24.547602,24.54415,24.538963,24.532394,24.528131,24.522564,24.519022,24.51546,24.513857,24.512669,24.511934,24.50991,24.507128,24.504017,24.501287,24.499975,24.499197,24.498903,24.498272,24.497541,24.496328,24.49558,24.492462,24.488867,24.483236,24.47861,24.472002,24.466682,24.459728,24.454235,24.448864,24.44435,24.438803,24.43316,24.428713,24.423708,24.420082,24.41327,24.406427,24.396238,24.388893,24.377357,24.368595,24.35511,24.344936,24.33217,24.32374,24.312223,24.303333,24.292515,24.283524,24.273481,24.264875,24.25768,24.251554,24.247238,24.242153,24.237482,24.232616,24.231155,24.223957,24.215504,24.198751,24.183752,24.160769,24.14257,24.115,24.09469,24.084911,24.080275,24.06408,24.017313,24.109192,23.75956,22.98383,21.386786,19.460594,17.958715,17.845299,17.88108,17.855034,17.82526,17.805824,17.781986,17.76936,17.768656,17.779716,17.78321,17.781847,17.783579,17.785336,17.784704,17.784,17.78534,17.788082,17.790771,17.79346,17.794582,17.79652,17.798891,17.800282,17.80008,17.797499,17.794168,17.783508,17.771835,17.760288,17.753874,17.745636,17.739643,17.732698,17.726938,17.721352,17.715929,17.710938,17.705214,17.700207,17.695293,17.692738,17.689817,17.687056,17.68954,17.695946,17.70248,17.705654,17.710243,17.713453,17.71769,17.720707,17.72397,17.725975,17.727554,17.728327,17.72905,17.729544,17.730286,17.729809,17.728497,17.725208,17.721897,17.717459,17.714607,17.71053,17.707685,17.704212,17.702164,17.699623,17.697971,17.695784,17.693834,17.6912,17.68828,17.684912,17.681126,17.677877,17.67376,17.670023,17.665369,17.662052,17.657906,17.655203,17.651405,17.648748,17.645285,17.643082,17.639746,17.637293,17.634708,17.633265,17.631699,17.630722,17.629608,17.628838,17.628439,17.62807,17.627493,17.626904,17.626614,17.626362,17.626263,17.626053,17.625916,17.624956,17.62375,17.622139,17.620987,17.619423,17.618275,17.616943,17.615889,17.614485,17.61302,17.611475,17.609526,17.607496,17.604794,17.60243,17.59956,17.597803,17.594524,17.591522,17.587002,17.583733,17.578531,17.574493,17.56871,17.564285,17.558212,17.553274,17.547249,17.541859,17.53557,17.529135,17.522799,17.515938,17.51043,17.503468,17.497782,17.48997,17.484186,17.475914,17.47002
20.446497,22.805878,23.733194,24.376463,24.273024,24.31669,24.322771,24.356098,24.381556,24.39713,24.402658,24.408474,24.413277,24.41751,24.423868,24.429586,24.439224,24.447638,24.458988,24.466465,24.477661,24.485868,24.494574,24.498632,24.503098,24.505281,24.508888,24.511843,24.514645,24.517166,24.520134,24.524391,24.529716,24.535421,24.538774,24.542456,24.54565,24.54773,24.548069,24.544521,24.539217,24.532598,24.528378,24.522644,24.518854,24.515,24.513266,24.512259,24.511892,24.510199,24.507618,24.50452,24.50176,24.500484,24.499868,24.499783,24.499432,24.498919,24.497824,24.497023,24.493856,24.490242,24.484594,24.479961,24.473368,24.46807,24.461126,24.455648,24.450333,24.445883,24.440392,24.434826,24.430462,24.425598,24.422112,24.415483,24.40876,24.398766,24.391582,24.380278,24.371674,24.358454,24.348492,24.33597,24.327679,24.31631,24.307503,24.29681,24.287897,24.277863,24.269224,24.26204,24.25595,24.251684,24.246635,24.241953,24.237108,24.235703,24.228584,24.220179,24.203503,24.188557,24.16578,24.147808,24.120375,24.100069,24.090496,24.085808,24.06851,24.020594,24.106987,23.764614,23.010698,21.45527,19.575127,18.108541,17.997766,18.0324,18.006912,17.975481,17.953064,17.9275,17.915358,17.919188,17.935472,17.937626,17.931107,17.93131,17.933565,17.932491,17.93147,17.93295,17.935751,17.938112,17.940245,17.940952,17.942377,17.944424,17.945375,17.945019,17.94048,17.934504,17.923727,17.914179,17.903248,17.896246,17.88773,17.881575,17.874432,17.8685,17.862751,17.857162,17.852005,17.846071,17.840899,17.835722,17.832863,17.829823,17.827238,17.829756,17.836023,17.842253,17.845123,17.849329,17.852285,17.856245,17.859102,17.862143,17.863998,17.865461,17.86622,17.866978,17.86762,17.86851,17.868328,17.867338,17.864416,17.86129,17.857176,17.85459,17.85098,17.84852,17.845612,17.84399,17.84209,17.840958,17.8394,17.837954,17.835924,17.833504,17.830608,17.827164,17.824118,17.820147,17.8166,17.811934,17.808426,17.803837,17.80075,17.796206,17.7929,17.788298,17.78514,17.780489,17.777063,17.773207,17.770805,17.768103,17.76624,17.764147,17.762678,17.76184,17.7613,17.760649,17.7601,17.759832,17.75979,17.75999,17.76008,17.760056,17.759218,17.75808,17.75657,17.75549,17.753933,17.75273,17.751366,17.750257,17.748701,17.74698,17.745106,17.742762,17.740408,17.737299,17.734552,17.731241,17.729181,17.725618,17.722504,17.717876,17.714563,17.709408,17.705477,17.699905,17.695692,17.689894,17.68517,17.679377,17.674162,17.668072,17.661812,17.655638,17.648926,17.643518,17.636665,17.631075,17.62332,17.617537,17.60919,17.603209
20.490953,22.818342,23.737036,24.37409,24.27238,24.315487,24.321075,24.354198,24.379843,24.395626,24.401457,24.407537,24.412651,24.417173,24.423838,24.429749,24.439587,24.448122,24.459614,24.467173,24.478464,24.486725,24.495502,24.499609,24.504147,24.506392,24.51009,24.51312,24.516003,24.51859,24.521622,24.525938,24.531338,24.537092,24.540447,24.54409,24.547232,24.54924,24.549536,24.545885,24.54048,24.533718,24.529392,24.523483,24.519531,24.515343,24.51335,24.51235,24.512209,24.510757,24.508333,24.505169,24.50231,24.501028,24.50055,24.500671,24.500608,24.500315,24.49935,24.4985,24.495317,24.491722,24.48612,24.48153,24.47496,24.469656,24.462704,24.457212,24.451897,24.447466,24.441994,24.436474,24.432161,24.4274,24.424023,24.417557,24.41094,24.401127,24.394087,24.382982,24.374512,24.361502,24.351696,24.339354,24.331152,24.319874,24.311102,24.300482,24.291607,24.281559,24.27289,24.265709,24.259636,24.255396,24.25035,24.245634,24.240757,24.239355,24.232235,24.22382,24.207136,24.192196,24.169533,24.151703,24.12425,24.103819,24.094362,24.089632,24.071297,24.022333,24.10474,23.76784,23.029675,21.505447,19.660923,18.221916,18.113552,18.146675,18.120003,18.087229,18.064175,18.038614,18.027082,18.030106,18.045095,18.048203,18.043617,18.044214,18.045904,18.044464,18.04333,18.045357,18.048418,18.05012,18.051437,18.05188,18.053026,18.054867,18.0555,18.055014,18.048872,18.040745,18.03003,18.02242,18.012161,18.004736,17.996058,17.98979,17.982538,17.976465,17.970465,17.964624,17.95932,17.953247,17.947952,17.942549,17.939346,17.936499,17.934708,17.937296,17.942822,17.948435,17.951115,17.955002,17.95773,17.961447,17.964169,17.967033,17.968773,17.97016,17.970928,17.971743,17.972525,17.973555,17.973627,17.972904,17.970299,17.96734,17.963501,17.961136,17.957905,17.955753,17.953278,17.951975,17.950546,17.949795,17.948692,17.947605,17.946009,17.943972,17.941479,17.938381,17.935566,17.931812,17.928507,17.9239,17.92027,17.915327,17.9119,17.906792,17.903057,17.897646,17.893782,17.888144,17.883972,17.879137,17.876,17.872438,17.869905,17.86704,17.865,17.863815,17.863117,17.862377,17.861803,17.861498,17.861553,17.861948,17.862228,17.862267,17.86154,17.860483,17.859098,17.858099,17.856585,17.855349,17.853958,17.852772,17.851048,17.849066,17.846872,17.84417,17.841537,17.838093,17.83505,17.831383,17.82907,17.825268,17.822046,17.817297,17.813906,17.808718,17.804821,17.799345,17.795246,17.78961,17.78501,17.779339,17.774221,17.768267,17.762142,17.756102,17.749517,17.74421,17.737474,17.731998,17.724333,17.71858,17.710213,17.704176
20.551376,22.83861,23.742506,24.370056,24.271246,24.314226,24.319672,24.35247,24.378008,24.394043,24.400328,24.406729,24.412153,24.416933,24.423845,24.42991,24.439909,24.44854,24.460138,24.467754,24.479118,24.487423,24.496223,24.500322,24.504826,24.507027,24.510706,24.513737,24.516611,24.519201,24.52225,24.526625,24.532146,24.538013,24.541412,24.545057,24.548183,24.550156,24.550432,24.546703,24.541214,24.534113,24.529402,24.523176,24.519115,24.51467,24.512468,24.511332,24.511114,24.509436,24.506893,24.503881,24.501291,24.500193,24.49981,24.499899,24.49977,24.499418,24.498514,24.497799,24.49498,24.491768,24.48694,24.483034,24.476837,24.471447,24.464426,24.458832,24.453424,24.448946,24.443466,24.438002,24.433743,24.429102,24.42585,24.419573,24.413115,24.403547,24.39671,24.385895,24.377626,24.364927,24.355356,24.343256,24.33517,24.323997,24.315254,24.304691,24.29584,24.285748,24.277035,24.269855,24.263836,24.259665,24.254675,24.24996,24.245085,24.24371,24.236603,24.228184,24.211475,24.196503,24.173923,24.156225,24.128742,24.108164,24.098835,24.093962,24.074055,24.023548,24.101398,23.770992,23.050072,21.563612,19.765617,18.363073,18.257917,18.28833,18.258734,18.224174,18.201725,18.176718,18.165482,18.168892,18.184132,18.18748,18.182936,18.183357,18.184729,18.182955,18.181679,18.184015,18.187239,18.188578,18.189383,18.189579,18.190435,18.192184,18.19199,18.19032,18.183392,18.175323,18.165022,18.157974,18.147932,18.140362,18.131596,18.125257,18.11802,18.11187,18.105497,18.099232,18.093756,18.087545,18.082138,18.076445,18.072594,18.070463,18.070808,18.07362,18.077168,18.081512,18.08421,18.087881,18.090443,18.094007,18.096668,18.099443,18.101154,18.102556,18.103434,18.104378,18.105415,18.10678,18.107138,18.106453,18.10399,18.10126,18.09774,18.095585,18.09268,18.090767,18.088629,18.08757,18.086527,18.086102,18.08541,18.084673,18.083422,18.081888,18.0803,18.078312,18.076479,18.073568,18.070852,18.066229,18.062143,18.055937,18.051132,18.044931,18.0411,18.035051,18.030434,18.023739,18.018745,18.012842,18.008892,18.004387,18.001097,17.997362,17.994637,17.992958,17.991928,17.99095,17.990223,17.98981,17.989933,17.990517,17.991001,17.991114,17.990551,17.989647,17.988434,17.987524,17.986073,17.98483,17.983446,17.98221,17.980307,17.978033,17.975492,17.972387,17.969414,17.965584,17.962234,17.958202,17.955626,17.951538,17.948168,17.94323,17.939713,17.934366,17.93038,17.924843,17.920757,17.915155,17.910612,17.904987,17.899908,17.894001,17.887957,17.882025,17.87558,17.87037,17.863792,17.85847,17.851007,17.845398,17.837141,17.831127
20.611576,22.86399,23.748981,24.365566,24.27018,24.313435,24.319056,24.351557,24.376837,24.393133,24.399902,24.4066,24.41226,24.41722,24.424274,24.430416,24.440466,24.44912,24.460732,24.468348,24.479708,24.488016,24.49677,24.500809,24.505196,24.507286,24.510862,24.513834,24.51664,24.519207,24.52225,24.5267,24.532356,24.53837,24.541845,24.545534,24.548662,24.550625,24.550884,24.547092,24.541553,24.534037,24.528803,24.522236,24.518139,24.513565,24.511234,24.509869,24.509434,24.507492,24.504885,24.502127,24.49989,24.498993,24.498625,24.49855,24.49818,24.497633,24.49674,24.49622,24.49381,24.490976,24.486883,24.48362,24.477806,24.472395,24.46543,24.459858,24.454493,24.450047,24.44457,24.43911,24.434885,24.430323,24.427158,24.421041,24.414724,24.405382,24.39873,24.388178,24.3801,24.367687,24.358334,24.346449,24.338457,24.327362,24.318632,24.308104,24.299267,24.289148,24.280418,24.273273,24.267334,24.263262,24.258356,24.253664,24.24879,24.24741,24.24026,24.231789,24.214987,24.199926,24.177343,24.159706,24.13208,24.111284,24.10205,24.097105,24.075783,24.023949,24.098566,23.773394,23.064503,21.608643,19.852007,18.48239,18.38025,18.407797,18.374563,18.338457,18.317743,18.293823,18.282593,18.286129,18.301418,18.30479,18.30018,18.30044,18.301632,18.299698,18.298393,18.300905,18.304264,18.305521,18.306145,18.30622,18.306911,18.308659,18.307703,18.304762,18.297947,18.29132,18.28152,18.273981,18.263826,18.256376,18.247662,18.241323,18.234106,18.22785,18.221113,18.214466,18.208868,18.202599,18.197115,18.191269,18.186953,18.185797,18.188486,18.191525,18.192871,18.19588,18.19871,18.202274,18.20474,18.208246,18.210918,18.213703,18.215462,18.21696,18.217995,18.219124,18.220377,18.221945,18.2224,18.221598,18.219135,18.216585,18.21328,18.211235,18.208466,18.20664,18.20461,18.203629,18.202736,18.202457,18.201973,18.201447,18.200382,18.199276,18.19854,18.197758,18.197098,18.19534,18.193438,18.189117,18.18483,18.177687,18.17176,18.164537,18.160435,18.153772,18.148605,18.141169,18.135637,18.128994,18.12445,18.119226,18.11531,18.110844,18.10747,18.105268,18.103794,18.102459,18.10143,18.100842,18.100895,18.101542,18.102098,18.102232,18.101795,18.10105,18.1,18.099174,18.097828,18.096643,18.095343,18.094124,18.092136,18.089672,18.086903,18.083519,18.080301,18.076206,18.072655,18.068365,18.06558,18.061237,18.0577,18.052519,18.048822,18.043215,18.039042,18.033308,18.029123,18.023434,18.018862,18.01319,18.008076,18.002127,17.996084,17.990194,17.983847,17.978716,17.97229,17.967129,17.95991,17.954494,17.946455,17.940542
20.68573,22.899174,23.75799,24.360033,24.269154,24.312693,24.318434,24.350695,24.375856,24.392517,24.399857,24.406914,24.412872,24.418072,24.425318,24.431551,24.441633,24.450262,24.46182,24.46939,24.480688,24.488949,24.497614,24.501558,24.505802,24.507778,24.511244,24.514174,24.51694,24.51952,24.522598,24.52716,24.532997,24.539192,24.542759,24.546482,24.549595,24.55148,24.551657,24.547823,24.542336,24.534431,24.52862,24.521671,24.517529,24.512756,24.510246,24.508589,24.50808,24.506582,24.504564,24.502056,24.499908,24.499071,24.498697,24.498583,24.498167,24.497593,24.49675,24.496346,24.493967,24.491056,24.486727,24.483223,24.477407,24.472246,24.465761,24.460735,24.456018,24.451994,24.446606,24.441008,24.43669,24.43203,24.428774,24.422691,24.416521,24.407427,24.400948,24.390657,24.382767,24.370642,24.361498,24.349829,24.341928,24.330923,24.322227,24.311771,24.302996,24.292912,24.28423,24.27719,24.271393,24.267454,24.262648,24.257977,24.253057,24.251606,24.2443,24.235699,24.21869,24.203478,24.180838,24.163246,24.135336,24.114195,24.105116,24.100285,24.077765,24.024849,24.09632,23.776943,23.080824,21.657948,19.94636,18.612688,18.51379,18.538616,18.502172,18.464584,18.445293,18.421265,18.408699,18.412617,18.429377,18.43326,18.428364,18.428556,18.429575,18.426998,18.425383,18.428654,18.432804,18.43399,18.43431,18.434248,18.434721,18.436312,18.434948,18.431528,18.424591,18.418266,18.40864,18.4011,18.39099,18.383583,18.375015,18.36875,18.361322,18.354694,18.347593,18.340672,18.334993,18.328703,18.323233,18.317122,18.312002,18.31163,18.316748,18.320372,18.319962,18.32183,18.32464,18.327969,18.330256,18.333626,18.33628,18.33905,18.340849,18.342417,18.343605,18.345016,18.346441,18.347898,18.348223,18.347412,18.345049,18.342644,18.339506,18.337543,18.334894,18.33315,18.33125,18.330366,18.329666,18.329578,18.329348,18.329094,18.328402,18.327793,18.327652,18.32783,18.328354,18.328056,18.3273,18.324028,18.320288,18.313496,18.30779,18.29934,18.293243,18.284658,18.2787,18.270428,18.264544,18.257215,18.252031,18.245935,18.241179,18.23571,18.231459,18.228601,18.226604,18.224834,18.223455,18.222673,18.222664,18.22339,18.22403,18.224165,18.223846,18.223259,18.22242,18.221735,18.220575,18.21952,18.218386,18.217245,18.215261,18.212677,18.20972,18.206085,18.202673,18.198324,18.194551,18.189945,18.186901,18.182201,18.17842,18.17287,18.168905,18.162964,18.1586,18.152676,18.148422,18.142693,18.138142,18.13247,18.127361,18.12143,18.115429,18.109594,18.103365,18.09836,18.092146,18.08718,18.080236,18.075035,18.067236,18.061457
20.766834,22.940514,23.768652,24.354025,24.26825,24.312166,24.318094,24.350128,24.375158,24.392187,24.400074,24.407448,24.413643,24.41905,24.426422,24.432688,24.44271,24.451239,24.462658,24.470137,24.481314,24.489494,24.498032,24.501877,24.505966,24.507816,24.51116,24.514023,24.516727,24.519304,24.522415,24.527096,24.533113,24.539503,24.543177,24.54697,24.55012,24.551989,24.552135,24.548098,24.542362,24.533997,24.52778,24.520521,24.51632,24.51146,24.508945,24.507303,24.506992,24.5061,24.50468,24.502352,24.500174,24.499302,24.498888,24.498775,24.498377,24.49782,24.497005,24.496649,24.494152,24.491045,24.486208,24.482227,24.476324,24.471474,24.465393,24.460777,24.456507,24.452778,24.44748,24.441921,24.437756,24.433357,24.430378,24.42458,24.418528,24.409609,24.403282,24.393225,24.385508,24.37366,24.364733,24.353281,24.345478,24.334572,24.325928,24.31556,24.306868,24.29684,24.288235,24.281324,24.275688,24.271887,24.267172,24.262522,24.257538,24.255999,24.248514,24.23975,24.22252,24.207155,24.184452,24.166891,24.138578,24.116957,24.108017,24.103447,24.079988,24.026323,24.095451,23.781477,23.095402,21.703295,20.03725,18.740503,18.64512,18.66758,18.628233,18.589165,18.57085,18.548815,18.538122,18.541674,18.556412,18.559586,18.554993,18.555038,18.55605,18.554104,18.553076,18.55618,18.559956,18.561052,18.56133,18.56124,18.56165,18.563133,18.561813,18.55858,18.551804,18.54553,18.536081,18.528728,18.518843,18.51157,18.503113,18.496792,18.489023,18.48199,18.47467,18.46767,18.461971,18.455685,18.449947,18.444416,18.440762,18.441454,18.446507,18.449524,18.44834,18.449604,18.45231,18.455406,18.457533,18.460785,18.463444,18.466227,18.468096,18.469772,18.471094,18.472729,18.474106,18.47507,18.474976,18.474201,18.471968,18.469637,18.466553,18.464588,18.461908,18.460117,18.458147,18.457214,18.456476,18.456402,18.456192,18.456026,18.455574,18.455248,18.455227,18.45566,18.456535,18.457113,18.45742,18.455633,18.452986,18.447662,18.443216,18.434858,18.427593,18.417948,18.411572,18.402721,18.396456,18.388529,18.38281,18.376041,18.37062,18.36429,18.359165,18.355541,18.352781,18.350367,18.348335,18.347128,18.346678,18.347126,18.347485,18.347473,18.347094,18.346573,18.345833,18.34525,18.34429,18.343431,18.342525,18.34154,18.339672,18.337107,18.33411,18.330387,18.326931,18.32249,18.318615,18.313797,18.310547,18.305534,18.301516,18.295595,18.291346,18.285038,18.280447,18.274258,18.269869,18.264006,18.259392,18.253601,18.248394,18.242367,18.236315,18.230453,18.224264,18.219324,18.213263,18.208447,18.201744,18.196741,18.1892,18.183592
20.839874,22.977121,23.778109,24.348568,24.267265,24.311497,24.317614,24.349394,24.37422,24.391516,24.399843,24.407423,24.413755,24.41929,24.426714,24.432955,24.442863,24.451271,24.462547,24.469948,24.481028,24.48915,24.497602,24.501385,24.50536,24.507118,24.510355,24.513145,24.515753,24.51828,24.521385,24.526152,24.5323,24.53885,24.542622,24.546522,24.549774,24.551737,24.551992,24.547577,24.541187,24.532324,24.526024,24.518522,24.514135,24.509281,24.50702,24.50595,24.506195,24.50552,24.504095,24.501816,24.499653,24.498764,24.498316,24.498175,24.497742,24.49716,24.49633,24.495964,24.493494,24.49042,24.485619,24.481647,24.47589,24.471165,24.464912,24.45993,24.455162,24.451124,24.445799,24.44074,24.437325,24.434122,24.432396,24.427404,24.421179,24.412066,24.405764,24.395847,24.388302,24.376728,24.368011,24.356773,24.349064,24.338257,24.329657,24.319365,24.310728,24.300722,24.292145,24.28532,24.279799,24.276096,24.271444,24.266794,24.261776,24.260197,24.252623,24.243763,24.226416,24.210976,24.188286,24.170786,24.142082,24.11997,24.111116,24.10678,24.082548,24.028305,24.095573,23.786303,23.108292,21.743174,20.118406,18.85545,18.763533,18.784119,18.742226,18.7016,18.68356,18.667046,18.663593,18.665642,18.672699,18.673187,18.66984,18.669476,18.67068,18.671776,18.672955,18.673927,18.67486,18.675716,18.67633,18.676361,18.676796,18.678068,18.676971,18.67431,18.668123,18.662104,18.6531,18.6461,18.63674,18.629787,18.621258,18.614548,18.606417,18.599146,18.591787,18.584873,18.57937,18.57274,18.565027,18.560993,18.563519,18.56665,18.567722,18.567894,18.566929,18.568174,18.570782,18.573746,18.575802,18.579027,18.58172,18.584564,18.586533,18.588383,18.589859,18.591702,18.592897,18.593107,18.59238,18.591652,18.58956,18.58727,18.584188,18.582188,18.57938,18.577448,18.575243,18.57411,18.573116,18.572859,18.572416,18.572104,18.571634,18.571241,18.570944,18.570807,18.570673,18.570951,18.572044,18.571796,18.570295,18.566761,18.563719,18.557325,18.551466,18.542767,18.536283,18.52665,18.51928,18.510359,18.50416,18.497202,18.49181,18.485188,18.479485,18.475122,18.47142,18.468239,18.465315,18.46346,18.462181,18.461994,18.461716,18.461426,18.46082,18.460266,18.459497,18.458937,18.458124,18.457466,18.45678,18.45595,18.454227,18.45174,18.448793,18.445103,18.4417,18.437298,18.433432,18.428545,18.425194,18.419989,18.415821,18.409647,18.405193,18.398575,18.39375,18.387259,18.382673,18.376574,18.371792,18.365746,18.36031,18.35405,18.34783,18.341858,18.335623,18.330658,18.324644,18.319904,18.313362,18.30851,18.301207,18.295765
20.925152,23.01964,23.789597,24.342955,24.266813,24.31148,24.317892,24.349384,24.373919,24.391449,24.400188,24.407927,24.414337,24.419962,24.427382,24.433552,24.443272,24.45149,24.462543,24.469826,24.48076,24.488796,24.497135,24.500843,24.504679,24.506308,24.50941,24.512102,24.514574,24.517027,24.520117,24.524975,24.531271,24.53801,24.541897,24.545956,24.549356,24.551474,24.551908,24.54687,24.539368,24.529785,24.523535,24.51603,24.51171,24.507107,24.505192,24.50467,24.505325,24.504683,24.503101,24.500834,24.49869,24.497778,24.49729,24.497118,24.496658,24.496058,24.495213,24.494825,24.492435,24.489487,24.484879,24.48106,24.475515,24.470892,24.464464,24.45911,24.453842,24.449497,24.444221,24.439568,24.436571,24.43401,24.432861,24.428589,24.422884,24.414331,24.408346,24.398746,24.391317,24.380032,24.371592,24.360626,24.35304,24.342384,24.333866,24.323689,24.315132,24.305168,24.29663,24.28991,24.284517,24.280914,24.276323,24.271675,24.266615,24.264996,24.257334,24.248388,24.230944,24.215445,24.192781,24.175339,24.146181,24.123493,24.114723,24.110645,24.085531,24.030666,24.096458,23.791939,23.119514,21.783424,20.208723,18.987423,18.89976,18.918297,18.873655,18.831274,18.81336,18.803955,18.810007,18.81025,18.80744,18.804506,18.802776,18.802103,18.80349,18.807314,18.810478,18.809534,18.80794,18.808594,18.809576,18.809683,18.810572,18.812483,18.811914,18.8093,18.803484,18.797932,18.789454,18.782743,18.773706,18.76687,18.758234,18.751265,18.742939,18.735588,18.728296,18.721466,18.715563,18.709457,18.703197,18.701809,18.707378,18.710463,18.70782,18.705534,18.70501,18.706347,18.708803,18.711609,18.713585,18.716755,18.719467,18.722355,18.724403,18.726402,18.727852,18.729383,18.730028,18.72965,18.728523,18.72784,18.725834,18.723547,18.720392,18.718306,18.715242,18.713043,18.710438,18.708979,18.707561,18.706987,18.706146,18.705551,18.704905,18.704353,18.703766,18.703083,18.702059,18.701777,18.702938,18.703468,18.702812,18.700855,18.699043,18.695322,18.692047,18.68591,18.680475,18.671644,18.664234,18.655302,18.648846,18.641302,18.635157,18.627825,18.621334,18.6161,18.611313,18.607174,18.603088,18.600382,18.597906,18.596712,18.595417,18.594679,18.593643,18.592943,18.591974,18.591322,18.590572,18.590115,18.589651,18.58902,18.587523,18.585217,18.582436,18.57891,18.57569,18.571457,18.567707,18.56285,18.55945,18.554115,18.549828,18.543444,18.538822,18.531898,18.526808,18.519943,18.515076,18.508629,18.503582,18.49715,18.49136,18.484734,18.478231,18.47206,18.465689,18.46061,18.454546,18.449799,18.443348,18.438606,18.431517,18.426247
