7.873891,9.260315,10.099904,10.796068,10.946365,11.056559,11.027904,10.9577,10.864833,10.776195,10.734755,10.726158,10.76663,10.827242,10.906267,10.977097,11.05108,11.110682,11.1744375,11.220088,11.270839,11.301225,11.347543,11.383838,11.434738,11.469664,11.517384,11.549765,11.5924425,11.621194,11.650473,11.669159,11.693453,11.718958,11.750659,11.78675,11.819174,11.854459,11.879978,11.913155,11.940312,11.974028,11.994682,12.028491,12.055827,12.092614,12.115604,12.112535,12.071689,11.999868,11.81618,11.446369,10.598097,8.74858,6.7704277,5.495455
9.918845,11.089237,11.419085,11.687218,11.759332,11.822555,11.823334,11.810928,11.78315,11.759226,11.748551,11.747745,11.760296,11.777515,11.799706,11.820438,11.84249,11.860247,11.87939,11.893974,11.90712,11.912282,11.919202,11.924581,11.930363,11.932993,11.940247,11.947798,11.959555,11.969109,11.977565,11.982161,11.988189,11.993643,11.99947,12.006101,12.012758,12.02063,12.026833,12.034293,12.0398245,12.046049,12.049737,12.053977,12.056638,12.055857,12.051695,12.038314,12.01917,12.004764,11.94601,11.878953,11.434214,10.280799,8.532509,6.441469
11.465227,12.237783,12.274199,12.295323,12.315246,12.333992,12.335644,12.34792,12.360429,12.375375,12.384144,12.388426,12.384939,12.378148,12.368554,12.360703,12.352793,12.3463955,12.339875,12.336541,12.328806,12.320499,12.306944,12.296464,12.279927,12.26719,12.253723,12.247427,12.24118,12.238668,12.234119,12.229695,12.22407,12.21701,12.20713,12.196197,12.187569,12.179235,12.173846,12.166365,12.159635,12.150792,12.145422,12.1345215,12.124828,12.106579,12.09067,12.072494,12.063351,12.071614,12.078292,12.170306,12.009905,11.526522,10.103651,7.400928
11.675672,12.075228,12.1561775,12.213818,12.230006,12.229268,12.2074995,12.203259,12.2134075,12.224257,12.232101,12.235928,12.234558,12.232599,12.229133,12.225925,12.222464,12.219648,12.217123,12.216516,12.21321,12.208565,12.201865,12.197308,12.190257,12.18494,12.178528,12.174773,12.170565,12.167986,12.163553,12.159017,12.153398,12.14696,12.138591,12.129983,12.123532,12.117728,12.113929,12.109421,12.105694,12.1015005,12.099423,12.094907,12.090692,12.084086,12.078776,12.066162,12.052976,12.0407,12.024043,12.060911,11.934328,11.7663555,10.616123,7.844431
11.976052,12.112885,12.18953,12.232046,12.223534,12.212816,12.201548,12.199951,12.2069025,12.213801,12.218012,12.218429,12.215041,12.211484,12.2071295,12.202915,12.198649,12.195319,12.192421,12.191525,12.188297,12.183997,12.177984,12.173988,12.168124,12.16393,12.157808,12.153327,12.147248,12.142858,12.138011,12.134437,12.129985,12.1249275,12.117913,12.110392,12.104708,12.099044,12.094722,12.089764,12.086085,12.082278,12.080638,12.076548,12.072227,12.069642,12.070053,12.06596,12.058938,12.046361,12.027135,12.040116,11.95156,12.029856,11.087953,8.274434
12.024572,12.114294,12.186179,12.213524,12.185643,12.180756,12.195752,12.2039995,12.203474,12.203096,12.200865,12.196384,12.190814,12.184999,12.179427,12.17428,12.169513,12.1658945,12.162758,12.161686,12.158068,12.153446,12.146441,12.141389,12.133811,12.128262,12.12066,12.115416,12.108099,12.103127,12.099313,12.097986,12.096192,12.093704,12.089061,12.083301,12.078846,12.0735655,12.068914,12.063299,12.059266,12.05491,12.052926,12.047416,12.041263,12.038485,12.04054,12.043669,12.045406,12.04375,12.030167,12.031388,11.937767,12.047553,11.160792,8.424253
12.10374,12.11781,12.172182,12.192845,12.172403,12.171448,12.185692,12.189487,12.182934,12.175156,12.167574,12.158408,12.151343,12.146011,12.142247,12.137757,12.133152,12.129408,12.12598,12.124578,12.121241,12.117334,12.111739,12.107863,12.102354,12.098532,12.093152,12.089392,12.084358,12.081137,12.079142,12.078797,12.077715,12.07542,12.071064,12.065405,12.060941,12.0554495,12.050445,12.044637,12.040661,12.036761,12.03528,12.031033,12.026246,12.023483,12.024284,12.026329,12.028542,12.034863,12.031594,12.030576,11.947327,12.118552,11.302639,8.622595
12.108262,12.101686,12.137476,12.160538,12.164093,12.167681,12.166427,12.159342,12.149408,12.137893,12.129158,12.118745,12.112065,12.10881,12.107712,12.104742,12.100916,12.097399,12.093973,12.092437,12.089722,12.086829,12.083258,12.081119,12.07857,12.077162,12.074936,12.073303,12.071624,12.070835,12.070453,12.070076,12.068471,12.06511,12.059894,12.053502,12.048471,12.04269,12.037623,12.032127,12.028511,12.02555,12.024907,12.022977,12.020815,12.018259,12.01676,12.013062,12.0103855,12.020774,12.027312,12.033217,11.958752,12.14518,11.356422,8.732317
12.094168,12.083158,12.101492,12.122561,12.142618,12.151208,12.142014,12.129212,12.117664,12.108799,12.105451,12.099558,12.095361,12.093041,12.091633,12.089013,12.085434,12.08192,12.078425,12.076825,12.074233,12.071617,12.068327,12.066282,12.064006,12.062884,12.061004,12.059578,12.058141,12.057457,12.05706,12.056506,12.054613,12.050903,12.045329,12.038647,12.033427,12.02759,12.022524,12.01725,12.013882,12.011561,12.011516,12.010832,12.00982,12.009102,12.008958,12.003311,11.997383,12.009007,12.02067,12.034109,11.969042,12.16207,11.391936,8.822114
12.047587,12.06641,12.074004,12.092043,12.120463,12.131578,12.118303,12.103372,12.092332,12.087864,12.090384,12.089683,12.088004,12.08594,12.083331,12.080732,12.077359,12.073883,12.070391,12.068793,12.066138,12.063496,12.05978,12.057164,12.054052,12.052325,12.04967,12.047731,12.045359,12.043905,12.042873,12.042099,12.040084,12.036411,12.030786,12.024103,12.018936,12.013264,12.00839,12.003367,12.000136,11.998116,11.998347,11.998135,11.997429,11.998596,12.000716,11.99531,11.988032,11.999727,12.013607,12.034679,11.977379,12.162689,11.403507,8.904283
12.009749,12.060539,12.065632,12.080566,12.108133,12.117584,12.102802,12.087774,12.077792,12.073024,12.074587,12.073461,12.071711,12.069399,12.0667305,12.064396,12.061341,12.057945,12.054429,12.052744,12.0500765,12.047558,12.043855,12.041107,12.037872,12.0360985,12.033477,12.031628,12.029276,12.027812,12.02689,12.026309,12.024575,12.021204,12.015843,12.009415,12.004464,11.99907,11.994503,11.989727,11.986533,11.984571,11.98486,11.984857,11.984372,11.986059,11.988714,11.9845085,11.97859,11.992561,12.009194,12.034725,11.983271,12.16701,11.428091,9.008275
11.94654,12.0594635,12.064315,12.075212,12.098759,12.10586,12.091378,12.077081,12.067834,12.061679,12.060954,12.058354,12.056194,12.053838,12.051707,12.050013,12.047623,12.044586,12.041282,12.039626,12.037082,12.034798,12.031257,12.028484,12.0252495,12.023492,12.021013,12.019342,12.01713,12.015738,12.015007,12.014673,12.013294,12.010287,12.00526,11.999128,11.994411,11.989279,11.985016,11.980355,11.977023,11.974751,11.974763,11.974488,11.973891,11.975428,11.978043,11.9753475,11.971702,11.988653,12.00816,12.036587,11.990498,12.17096,11.464769,9.168741
11.888775,12.058106,12.060864,12.068826,12.091824,12.098984,12.084927,12.070094,12.059809,12.052997,12.052197,12.049719,12.047978,12.04611,12.044617,12.043665,12.042004,12.039433,12.036475,12.034964,12.032631,12.030587,12.027235,12.024485,12.021276,12.019534,12.01714,12.015571,12.013401,12.011992,12.011287,12.011009,12.009741,12.006855,12.001923,11.995856,11.991176,11.986075,11.981905,11.977155,11.973592,11.970887,11.970515,11.969831,11.96904,11.970393,11.9729805,11.97081,11.968148,11.987504,12.009798,12.039722,11.997685,12.176012,11.501966,9.322068
11.785759,12.061082,12.059611,12.062396,12.085113,12.0926075,12.079028,12.064841,12.054987,12.048527,12.047954,12.046153,12.045277,12.044349,12.043881,12.044028,12.043454,12.041668,12.039378,12.038199,12.03629,12.034634,12.031632,12.028996,12.025879,12.024145,12.021806,12.020287,12.018093,12.016608,12.01584,12.015543,12.014315,12.011505,12.00663,12.000626,11.996014,11.990998,11.986969,11.982125,11.978288,11.974998,11.974089,11.9726925,11.971431,11.972183,11.9744215,11.972509,11.970613,11.990902,12.014411,12.045491,12.007772,12.176062,11.541148,9.523384
11.693113,12.066861,12.061188,12.059024,12.08155,12.089097,12.075578,12.062969,12.05509,12.0497875,12.049408,12.048343,12.0482435,12.048154,12.048532,12.049537,12.0498295,12.048722,12.04705,12.046219,12.044711,12.043381,12.04069,12.038182,12.035142,12.033385,12.031002,12.0294285,12.027117,12.025514,12.024608,12.024223,12.022955,12.020165,12.015304,12.009373,12.004878,12.000027,11.99618,11.991371,11.98742,11.983798,11.982564,11.980624,11.978929,11.979079,11.980917,11.979047,11.977468,11.996799,12.019348,12.051214,12.016128,12.170136,11.560384,9.670218
11.561461,12.072429,12.061816,12.053542,12.07595,12.083509,12.069855,12.060114,12.0559845,12.052601,12.052165,12.051918,12.052665,12.053438,12.054682,12.056613,12.057864,12.057514,12.056516,12.056012,12.054946,12.05403,12.051765,12.049446,12.046589,12.044892,12.042644,12.041185,12.038961,12.037382,12.036526,12.036194,12.035034,12.032356,12.027565,12.021697,12.017286,12.012513,12.008783,12.003837,11.999585,11.9952965,11.99345,11.990567,11.988166,11.98725,11.988313,11.986172,11.984719,12.001963,12.0223875,12.054378,12.0226,12.164862,11.58319,9.820042
11.468811,12.073953,12.060787,12.04898,12.071357,12.07878,12.064765,12.057439,12.056641,12.054766,12.054011,12.054149,12.055305,12.056449,12.058071,12.060463,12.062211,12.062258,12.061591,12.061208,12.060362,12.0597105,12.057733,12.05555,12.052868,12.051279,12.049272,12.048037,12.046061,12.044637,12.043992,12.043834,12.042884,12.0403595,12.03567,12.02983,12.025423,12.020598,12.016855,12.011671,12.007104,12.002184,11.999781,11.996088,11.993123,11.991297,11.991657,11.989097,11.987534,12.002902,12.021427,12.052884,12.023235,12.163412,11.596588,9.885759
11.342173,12.080617,12.061377,12.043126,12.065949,12.074892,12.062311,12.05802,12.059914,12.0596895,12.059076,12.059922,12.061673,12.063375,12.065468,12.068329,12.0705595,12.071043,12.07073,12.070431,12.069791,12.069415,12.067803,12.065859,12.063474,12.062063,12.0604315,12.059539,12.057943,12.056746,12.056357,12.056348,12.055561,12.053085,12.048345,12.042348,12.037793,12.032764,12.028899,12.023364,12.018396,12.012774,12.009788,12.005242,12.001669,11.99892,11.998603,11.995721,11.994101,12.007165,12.02325,12.053267,12.026442,12.16766,11.622935,9.977704
11.256537,12.088168,12.06307,12.039397,12.062883,12.074097,12.063883,12.061508,12.063936,12.064534,12.064405,12.065831,12.067972,12.070056,12.072395,12.075424,12.077801,12.078481,12.078305,12.077988,12.077394,12.077132,12.075742,12.073988,12.071849,12.070587,12.069262,12.068645,12.067362,12.066348,12.0661335,12.066181,12.065435,12.062888,12.057982,12.051738,12.046971,12.0417,12.037672,12.031868,12.026646,12.020648,12.0173855,12.012432,12.00856,12.005396,12.0048,12.001848,12.000236,12.011878,12.026373,12.054817,12.029853,12.175242,11.646611,10.03875
11.155407,12.09549,12.064149,12.034629,12.0589285,12.072994,12.065761,12.065768,12.0688095,12.070275,12.070543,12.07244,12.074825,12.077114,12.07952,12.082555,12.084914,12.085657,12.085447,12.084946,12.084234,12.084012,12.08276,12.081145,12.079228,12.0781355,12.077219,12.077011,12.076209,12.075513,12.07565,12.075896,12.075334,12.0728035,12.067787,12.06131,12.056333,12.050823,12.046658,12.04057,12.035035,12.028583,12.025003,12.0195465,12.015292,12.011504,12.010422,12.007236,12.00557,12.015536,12.028253,12.054495,12.0322695,12.1851015,11.67994,10.123238
11.096571,12.09898,12.064404,12.031883,12.056761,12.073023,12.068144,12.069698,12.072785,12.074578,12.074969,12.076913,12.079184,12.081308,12.083469,12.086243,12.088317,12.088873,12.088395,12.087595,12.086617,12.086309,12.085026,12.083428,12.0816145,12.0806465,12.080072,12.080225,12.0798645,12.079477,12.079987,12.080478,12.080143,12.077687,12.072635,12.066016,12.060909,12.05525,12.051013,12.044756,12.03901,12.032276,12.0285225,12.022761,12.018262,12.014005,12.012513,12.009076,12.007337,12.0162735,12.027954,12.052461,12.0323715,12.191929,11.705629,10.1884165
11.040029,12.10182,12.065112,12.030473,12.055918,12.074832,12.072909,12.076296,12.079277,12.081191,12.081431,12.083053,12.084832,12.086381,12.087903,12.090055,12.091484,12.091546,12.090492,12.089186,12.08777,12.087307,12.08594,12.084339,12.082687,12.081944,12.081913,12.082619,12.082913,12.082975,12.08405,12.084917,12.084913,12.082547,12.07744,12.070606,12.065293,12.059397,12.055035,12.048522,12.042492,12.035364,12.031356,12.025182,12.020363,12.015478,12.013431,12.009651,12.007821,12.015524,12.025986,12.048745,12.031124,12.1952915,11.732005,10.274214
11.015485,12.101976,12.065614,12.031064,12.056781,12.077646,12.078032,12.082725,12.085465,12.087278,12.08723,12.088345,12.089499,12.090351,12.091156,12.0926285,12.09336,12.092861,12.091198,12.089417,12.087593,12.086971,12.0855055,12.083883,12.082383,12.081874,12.082359,12.083576,12.084473,12.084949,12.086555,12.087781,12.088075,12.085782,12.080628,12.073603,12.068099,12.061981,12.05749,12.050751,12.044485,12.037028,12.0328045,12.026292,12.021223,12.015814,12.01329,12.009237,12.007359,12.014022,12.023454,12.045014,12.029404,12.194011,11.751135,10.3579235
10.999714,12.101022,12.065423,12.031445,12.057446,12.07995,12.082234,12.088151,12.0909,12.092864,12.09274,12.093592,12.094327,12.0947275,12.095049,12.096053,12.096303,12.095424,12.093351,12.09124,12.08915,12.088449,12.086977,12.085398,12.084098,12.083827,12.084806,12.086497,12.087956,12.088811,12.09089,12.092415,12.092942,12.090674,12.085444,12.078209,12.0724945,12.066137,12.061508,12.054544,12.048054,12.040293,12.035867,12.02905,12.023765,12.017899,12.01496,12.010747,12.00889,12.014354,12.02253,12.042749,12.02943,12.193341,11.774542,10.461908
10.994398,12.099211,12.065613,12.032962,12.058732,12.082453,12.086534,12.093552,12.096272,12.098394,12.098272,12.098975,12.099438,12.099566,12.099601,12.10032,12.100272,12.09916,12.096841,12.094534,12.0922985,12.0915575,12.090108,12.088576,12.087463,12.087404,12.088805,12.090893,12.092836,12.094023,12.096529,12.09833,12.099067,12.096833,12.091577,12.084197,12.078317,12.071746,12.066979,12.05978,12.053069,12.04497,12.040286,12.033103,12.027567,12.021196,12.017811,12.013465,12.011652,12.015503,12.021932,12.040947,12.02993,12.189333,11.795768,10.579488
10.988417,12.099744,12.067503,12.035399,12.060552,12.085546,12.0918665,12.100077,12.102557,12.1046915,12.104503,12.105028,12.10525,12.105141,12.104943,12.105433,12.105154,12.103856,12.101341,12.098885,12.096518,12.095719,12.094242,12.092708,12.091705,12.091803,12.093539,12.095953,12.098309,12.099797,12.102713,12.104811,12.105788,12.103643,12.098434,12.090997,12.085022,12.07828,12.07339,12.065935,12.058968,12.050439,12.045405,12.037715,12.031827,12.024792,12.020836,12.016254,12.014412,12.016249,12.020491,12.0383835,12.029483,12.182683,11.812305,10.690679
10.970274,12.096068,12.068375,12.038534,12.062299,12.088252,12.096956,12.106349,12.108488,12.110606,12.11039,12.110798,12.11085,12.1105795,12.110215,12.110537,12.110071,12.108609,12.105912,12.1033125,12.100817,12.099955,12.098457,12.096941,12.096084,12.096361,12.098463,12.101225,12.10403,12.105858,12.109231,12.111663,12.112914,12.110895,12.105792,12.09835,12.092315,12.085416,12.080395,12.072678,12.065472,12.056502,12.0510845,12.042845,12.03658,12.028834,12.024267,12.019472,12.017634,12.017138,12.01884,12.035788,12.029244,12.1726,11.828329,10.8215275
10.944606,12.08856,12.067381,12.041097,12.06336,12.0897045,12.100036,12.110175,12.11201,12.114082,12.11385,12.114153,12.1140585,12.113641,12.113124,12.1132965,12.112657,12.111032,12.108159,12.105435,12.102838,12.101931,12.100448,12.098986,12.098283,12.098726,12.101134,12.104173,12.107332,12.109423,12.113136,12.115807,12.117252,12.115314,12.110289,12.102853,12.096783,12.089791,12.08469,12.076838,12.069529,12.060337,12.054701,12.04615,12.039682,12.031517,12.026582,12.021726,12.019952,12.017819,12.017728,12.034162,12.029456,12.163352,11.840313,10.931325
10.907068,12.076799,12.063985,12.042324,12.062829,12.0891695,12.100733,12.111555,12.113338,12.115633,12.115626,12.116178,12.116258,12.1159935,12.115554,12.115779,12.115119,12.113447,12.11045,12.107586,12.104849,12.103872,12.102415,12.101043,12.100557,12.101217,12.104024,12.107423,12.111072,12.113532,12.117701,12.120681,12.12239,12.120582,12.115696,12.108293,12.102168,12.095016,12.089761,12.081671,12.074192,12.064689,12.058776,12.049846,12.043129,12.034485,12.029131,12.024201,12.02252,12.018801,12.017001,12.033126,12.030528,12.155478,11.853792,11.039456
10.880135,12.067278,12.059947,12.0414,12.060901,12.086905,12.0986805,12.10981,12.111865,12.114565,12.11493,12.115969,12.116462,12.116585,12.116428,12.116891,12.116389,12.1148205,12.111832,12.1088915,12.106061,12.105034,12.1036005,12.102304,12.101984,12.102799,12.105897,12.109563,12.11359,12.116351,12.120872,12.124089,12.126012,12.124322,12.119568,12.112191,12.106013,12.098693,12.093267,12.084931,12.077266,12.067479,12.061346,12.052117,12.045207,12.036212,12.030569,12.025541,12.023906,12.01941,12.01682,12.032881,12.031584,12.153043,11.862286,11.0911665
10.842656,12.059322,12.057017,12.040905,12.059187,12.085092,12.097582,12.109287,12.111571,12.114722,12.115514,12.11715,12.118164,12.1187525,12.118914,12.119633,12.119277,12.117806,12.114756,12.111636,12.108593,12.107443,12.1059885,12.1047735,12.104658,12.105677,12.109174,12.113209,12.117749,12.120906,12.12588,12.129391,12.131579,12.130042,12.125464,12.118146,12.111915,12.104411,12.098803,12.0901785,12.082286,12.072141,12.065718,12.056107,12.048956,12.039529,12.033534,12.028465,12.026962,12.021284,12.017468,12.033672,12.034445,12.152624,11.874855,11.151658
10.816422,12.057646,12.057024,12.041264,12.058781,12.084892,12.098227,12.110451,12.11277,12.1161375,12.117153,12.119134,12.120453,12.121302,12.121621,12.122456,12.122144,12.120699,12.117557,12.114259,12.111008,12.109735,12.10823,12.107056,12.107069,12.108224,12.111998,12.116292,12.121186,12.124607,12.129873,12.13357,12.13593,12.13449,12.130033,12.1227665,12.116518,12.108915,12.103216,12.094424,12.086395,12.0760145,12.069391,12.0595255,12.052223,12.042522,12.036306,12.031283,12.029926,12.02324,12.018356,12.034842,12.0373535,12.154199,11.884321,11.187906
10.781051,12.055507,12.057179,12.042063,12.058766,12.085554,12.100369,12.113466,12.115757,12.119354,12.120591,12.122932,12.124554,12.125605,12.125992,12.12687,12.126503,12.124994,12.121613,12.11799,12.114374,12.112904,12.111283,12.110125,12.110257,12.1115675,12.115671,12.120293,12.125595,12.129304,12.134864,12.138722,12.14122,12.139852,12.135506,12.128303,12.122044,12.1143875,12.108653,12.099796,12.091714,12.081204,12.074446,12.064409,12.05701,12.04707,12.040627,12.035608,12.034423,12.027484,12.022315,12.03868,12.042264,12.155835,11.897549,11.2435
10.757514,12.054558,12.057625,12.042951,12.059274,12.086828,12.102918,12.116729,12.118924,12.122608,12.123919,12.126408,12.128136,12.129204,12.129523,12.130338,12.129845,12.1282215,12.124596,12.120688,12.116769,12.115142,12.113411,12.112235,12.112416,12.113808,12.118107,12.12293,12.128462,12.132307,12.137993,12.141892,12.144417,12.143056,12.138753,12.131594,12.125346,12.117717,12.112032,12.103252,12.095234,12.084773,12.078017,12.067989,12.060603,12.050593,12.044047,12.038995,12.037909,12.031594,12.027066,12.043013,12.046425,12.156773,11.906916,11.285553
10.729925,12.054159,12.059173,12.045104,12.060768,12.089263,12.107077,12.121735,12.123642,12.127261,12.128536,12.131063,12.132831,12.1338415,12.134041,12.13475,12.134112,12.132374,12.128503,12.124284,12.1200485,12.118276,12.116487,12.1153555,12.115682,12.117233,12.121852,12.126968,12.1328535,12.136928,12.142832,12.14684,12.149472,12.1482,12.14405,12.137038,12.130872,12.1233225,12.117726,12.10902,12.101039,12.090541,12.083698,12.073547,12.066085,12.05586,12.049093,12.043934,12.042951,12.0371475,12.033197,12.048839,12.052542,12.1583,11.920643,11.347422
10.713272,12.054604,12.061058,12.047515,12.062728,12.091898,12.110932,12.126068,12.127595,12.13096,12.1320505,12.134418,12.136074,12.136929,12.136977,12.137556,12.136802,12.134991,12.130988,12.126599,12.122212,12.120386,12.118629,12.117587,12.118079,12.119779,12.124644,12.129969,12.1361065,12.140343,12.146394,12.150478,12.153204,12.15204,12.148062,12.141236,12.135201,12.127786,12.12231,12.113694,12.105756,12.09521,12.088268,12.077971,12.070407,12.059961,12.052992,12.04771,12.046781,12.041312,12.037782,12.0533,12.057393,12.159156,11.931571,11.399392
10.694415,12.05475,12.063131,12.050509,12.065364,12.095263,12.1154785,12.130905,12.131811,12.134642,12.13534,12.137314,12.138705,12.139264,12.13907,12.139422,12.138492,12.136592,12.132484,12.127964,12.123487,12.121646,12.120003,12.119126,12.119859,12.121727,12.1268425,12.132349,12.138693,12.143038,12.149144,12.153221,12.155965,12.154889,12.15111,12.144555,12.138737,12.131577,12.126335,12.117956,12.110164,12.099654,12.092626,12.082191,12.074532,12.063864,12.056684,12.0513,12.05047,12.045496,12.042552,12.057896,12.062464,12.158731,11.944671,11.468555
10.680994,12.054667,12.064664,12.053244,12.06839,12.098847,12.11944,12.13473,12.135062,12.137287,12.137525,12.139005,12.140054,12.14028,12.139839,12.139952,12.138846,12.136868,12.132712,12.12814,12.123662,12.121849,12.120348,12.119646,12.120584,12.122568,12.127819,12.133392,12.139802,12.144155,12.150202,12.154198,12.156898,12.155886,12.152289,12.146022,12.140451,12.133608,12.128652,12.120575,12.112983,12.102573,12.095502,12.084976,12.077241,12.066389,12.05903,12.053555,12.052803,12.04826,12.045818,12.060949,12.065878,12.156425,11.955255,11.533992
10.668374,12.054124,12.065705,12.056148,12.072578,12.103789,12.12411,12.139072,12.139036,12.140771,12.140603,12.141633,12.142353,12.14227,12.141587,12.141453,12.140147,12.138056,12.133801,12.129134,12.124598,12.122779,12.121374,12.120814,12.121915,12.123988,12.129338,12.13496,12.14141,12.145759,12.151744,12.155673,12.158345,12.157419,12.154026,12.148071,12.142776,12.136271,12.131619,12.123864,12.116487,12.106192,12.099086,12.088458,12.080625,12.069528,12.061928,12.056286,12.055565,12.051388,12.049395,12.064168,12.069384,12.152463,11.966496,11.611701
10.650999,12.05383,12.066818,12.059096,12.0771055,12.108908,12.128445,12.142811,12.1424465,12.143674,12.143091,12.143655,12.144048,12.143683,12.142805,12.142461,12.140984,12.138794,12.134452,12.129701,12.125105,12.123268,12.121931,12.1214905,12.122695,12.1248,12.130146,12.135728,12.142128,12.146427,12.152295,12.156131,12.158774,12.157963,12.154811,12.1492195,12.144242,12.138141,12.133846,12.126468,12.119329,12.109184,12.102078,12.091374,12.083449,12.072106,12.064252,12.058432,12.057733,12.0539255,12.052354,12.0666065,12.07192,12.147304,11.976652,11.686923
10.625748,12.053865,12.067888,12.061113,12.080001,12.112053,12.130972,12.144685,12.143828,12.144433,12.143393,12.143451,12.143513,12.142874,12.14183,12.141326,12.139733,12.137483,12.133098,12.1283045,12.123694,12.1218605,12.120621,12.120323,12.121654,12.123794,12.1291275,12.134648,12.141002,12.145268,12.151032,12.15479,12.157433,12.156771,12.153901,12.148709,12.144077,12.138403,12.134495,12.127519,12.120624,12.110653,12.103574,12.092848,12.084869,12.073348,12.065299,12.059386,12.058777,12.055417,12.054324,12.068157,12.073586,12.142578,11.985325,11.7493305
10.595239,12.055482,12.071226,12.065623,12.085138,12.117347,12.135707,12.1488,12.147455,12.14744,12.145948,12.145531,12.14531,12.144471,12.143344,12.142732,12.141063,12.138783,12.134355,12.129502,12.124815,12.122922,12.12168,12.121449,12.122772,12.124833,12.1299715,12.135292,12.141436,12.145568,12.151084,12.154662,12.157227,12.156691,12.154091,12.149315,12.145047,12.139836,12.136357,12.129811,12.12316,12.113348,12.106281,12.095487,12.087412,12.075627,12.067308,12.06122,12.060651,12.057769,12.057133,12.070036,12.075096,12.138217,11.994344,11.806736
10.575146,12.057581,12.0750885,12.070722,12.090656,12.123062,12.14115,12.153963,12.152385,12.152039,12.150292,12.149638,12.149314,12.14844,12.147326,12.146683,12.144985,12.142709,12.1382475,12.133328,12.1285305,12.126541,12.125215,12.1249695,12.126175,12.128088,12.13296,12.138042,12.143911,12.147855,12.153066,12.156416,12.158822,12.158302,12.155824,12.151291,12.147236,12.142309,12.1391,12.132813,12.126298,12.116535,12.109428,12.098506,12.0903015,12.078239,12.069662,12.063349,12.062733,12.0601425,12.059755,12.071574,12.075982,12.135629,12.0007715,11.842152
10.550085,12.062347,12.083129,12.08086,12.101015,12.133583,12.151454,12.164008,12.162171,12.161483,12.159468,12.1585245,12.158043,12.1571245,12.15604,12.155366,12.153618,12.151313,12.146749,12.141705,12.136672,12.134477,12.132884,12.132485,12.133361,12.134968,12.139362,12.144069,12.149495,12.1531515,12.157949,12.161024,12.163264,12.1628,12.160481,12.156262,12.152503,12.147991,12.145182,12.139281,12.132957,12.123288,12.116165,12.105101,12.096729,12.084278,12.075321,12.068652,12.06792,12.065668,12.065535,12.075624,12.078782,12.134082,12.010065,11.885125
10.533524,12.067022,12.090605,12.09012,12.110341,12.143017,12.160796,12.173204,12.171186,12.170291,12.168111,12.166939,12.166302,12.165326,12.164252,12.163555,12.161755,12.159399,12.15472,12.149562,12.144315,12.141922,12.140049,12.139463,12.140009,12.141343,12.145342,12.149759,12.154851,12.158304,12.162838,12.165768,12.167953,12.167584,12.165408,12.161441,12.157933,12.153774,12.151309,12.145741,12.1395855,12.130025,12.122923,12.11179,12.103312,12.090572,12.081314,12.074351,12.073509,12.07149,12.071511,12.0802145,12.082282,12.134086,12.01791,11.9182625
10.499643,12.073611,12.102418,12.10476,12.124412,12.1568165,12.174407,12.186484,12.184119,12.182832,12.180363,12.178805,12.177897,12.176777,12.175654,12.174879,12.172965,12.1705,12.165624,12.160283,12.154709,12.152031,12.14974,12.148866,12.148901,12.149814,12.153199,12.1571665,12.16172,12.164829,12.168923,12.171599,12.17367,12.173423,12.171444,12.167833,12.164686,12.161041,12.159073,12.153996,12.148091,12.138704,12.131647,12.120442,12.1118355,12.098738,12.089106,12.081785,12.08082,12.079167,12.079432,12.086229,12.086769,12.134067,12.028291,11.960798
10.46716,12.077963,12.11138,12.115952,12.134751,12.16667,12.18408,12.195831,12.193157,12.191518,12.188802,12.186934,12.185808,12.184544,12.18335,12.18249,12.180473,12.17791,12.172874,12.167395,12.161583,12.158703,12.156109,12.15502,12.154676,12.155273,12.158194,12.161814,12.165943,12.1687765,12.172511,12.174978,12.176944,12.176777,12.174933,12.171584,12.168702,12.16543,12.163822,12.159102,12.153383,12.144132,12.137111,12.125871,12.117182,12.103865,12.094004,12.08647,12.085442,12.084078,12.0845375,12.090035,12.08953,12.133911,12.035143,11.988394
10.434718,12.086945,12.126078,12.133361,12.150912,12.182059,12.199208,12.210455,12.207309,12.205112,12.20199,12.199596,12.198081,12.196529,12.195148,12.194084,12.191837,12.189079,12.183764,12.178046,12.171852,12.168653,12.165609,12.164217,12.163299,12.163391,12.165626,12.168767,12.172256,12.174632,12.177769,12.179849,12.18157,12.181425,12.17968,12.176607,12.174022,12.171216,12.170081,12.165849,12.160389,12.15134,12.144392,12.133145,12.124386,12.110817,12.10067,12.0928755,12.09177,12.090839,12.0915785,12.095225,12.093152,12.133862,12.044016,12.021742
10.4210415,12.0954,12.138051,12.146928,12.163507,12.194012,12.210966,12.221815,12.218305,12.215664,12.212207,12.20938,12.207536,12.205715,12.204142,12.202866,12.200396,12.197456,12.191898,12.185983,12.179485,12.176037,12.172654,12.171048,12.1697035,12.169421,12.171146,12.173931,12.1769285,12.178934,12.1815815,12.183325,12.184804,12.184613,12.182868,12.179928,12.177502,12.174986,12.174164,12.170265,12.164986,12.156093,12.149211,12.13799,12.12921,12.115505,12.105188,12.097231,12.096078,12.095466,12.096404,12.098733,12.095494,12.133971,12.04966,12.040825
10.408671,12.107636,12.154284,12.1647835,12.179963,12.209477,12.226136,12.236425,12.232437,12.229228,12.225365,12.222008,12.219764,12.217632,12.215838,12.214311,12.211562,12.208395,12.202537,12.196376,12.189509,12.185792,12.181823,12.179627,12.177731,12.177269,12.178229,12.180177,12.182504,12.184253,12.186371,12.18771,12.188893,12.188735,12.187288,12.184815,12.182674,12.180554,12.180181,12.176753,12.171733,12.163054,12.15626,12.145045,12.136203,12.122254,12.111657,12.103405,12.102123,12.101809,12.10292,12.103518,12.09877,12.134401,12.057035,12.063929
10.406877,12.11849,12.167366,12.178518,12.192514,12.221141,12.237559,12.2473955,12.243048,12.239416,12.235258,12.2315235,12.228994,12.226629,12.22465,12.222908,12.219912,12.216539,12.210422,12.20406,12.196893,12.192926,12.188629,12.186196,12.184251,12.183967,12.184415,12.185524,12.187205,12.188712,12.190407,12.191454,12.192445,12.192278,12.190847,12.188515,12.186553,12.18474,12.184685,12.181594,12.176753,12.168228,12.161499,12.150281,12.1413765,12.127231,12.116412,12.107918,12.106505,12.106307,12.107463,12.106877,12.101122,12.135081,12.062001,12.076019
10.407339,12.134222,12.18546,12.197068,12.209495,12.236978,12.253145,12.262454,12.257655,12.253362,12.248671,12.244395,12.241522,12.23889,12.2366495,12.234505,12.231002,12.227216,12.220595,12.213875,12.206031,12.201072,12.197394,12.196991,12.196924,12.197294,12.197435,12.197364,12.197328,12.19741,12.198025,12.198719,12.199621,12.199032,12.195531,12.191489,12.18982,12.1889,12.189144,12.186312,12.181622,12.173241,12.166599,12.155411,12.146473,12.131982,12.120719,12.112091,12.110869,12.110886,12.112026,12.110286,12.103621,12.136484,12.067514,12.083108
10.413351,12.149819,12.202679,12.214267,12.225095,12.251383,12.267308,12.276085,12.27087,12.266134,12.261157,12.256467,12.253195,12.250095,12.247374,12.244771,12.240763,12.23654,12.229398,12.222258,12.213904,12.208329,12.205506,12.207058,12.208774,12.209729,12.210194,12.209846,12.208595,12.207215,12.206776,12.207066,12.207871,12.206762,12.201018,12.194776,12.19256,12.191769,12.192133,12.189476,12.184836,12.176521,12.169949,12.158758,12.149749,12.135276,12.1241,12.115321,12.113841,12.113783,12.114883,12.1124,12.105212,12.137862,12.071105,12.081345
10.420621,12.166467,12.2214985,12.233231,12.242095,12.266874,12.282449,12.290538,12.284837,12.279803,12.274779,12.2697935,12.266045,12.2621565,12.258634,12.255539,12.251111,12.246494,12.23887,12.231134,12.222969,12.218602,12.215852,12.216087,12.21679,12.21759,12.2193775,12.220964,12.220436,12.218435,12.217131,12.216549,12.216923,12.215595,12.209627,12.202346,12.197757,12.195044,12.195458,12.193208,12.188607,12.180354,12.173886,12.16242,12.152852,12.138842,12.128794,12.119839,12.117261,12.116791,12.11789,12.114489,12.1066,12.138651,12.074357,12.079854
10.4340925,12.184944,12.242121,12.253757,12.260234,12.283075,12.298122,12.305216,12.298906,12.294408,12.290373,12.285233,12.2804,12.274891,12.269869,12.266182,12.261493,12.25651,12.24847,12.240255,12.232275,12.229059,12.225767,12.223835,12.222661,12.222934,12.225735,12.22928,12.2302685,12.22873,12.227414,12.226298,12.226196,12.224689,12.219691,12.212157,12.204378,12.198687,12.199006,12.197137,12.192497,12.184207,12.177688,12.166307,12.156832,12.144526,12.136664,12.1266775,12.121003,12.119262,12.120568,12.116337,12.107803,12.139306,12.076773,12.07515
10.449783,12.203643,12.262739,12.274011,12.2779,12.298617,12.313084,12.319015,12.31205,12.308989,12.307076,12.302345,12.296174,12.288037,12.280485,12.276104,12.271392,12.266057,12.257744,12.249581,12.241159,12.237098,12.232993,12.230812,12.229235,12.229198,12.231497,12.23474,12.236517,12.2362995,12.236101,12.235441,12.235168,12.233231,12.228968,12.221058,12.210251,12.2019205,12.20246,12.201166,12.196426,12.187975,12.181252,12.170287,12.161491,12.152742,12.148988,12.136261,12.123803,12.119929,12.122735,12.118114,12.108989,12.140068,12.078814,12.069076
10.475424,12.226451,12.287189,12.297896,12.299061,12.317331,12.330938,12.335346,12.327535,12.326199,12.326636,12.320816,12.311755,12.301513,12.292579,12.28751,12.28247,12.276766,12.267957,12.2593975,12.250139,12.245116,12.240366,12.238304,12.236569,12.236218,12.237546,12.239829,12.241791,12.242616,12.243312,12.243083,12.242557,12.240287,12.236862,12.229424,12.2177105,12.207962,12.207594,12.205661,12.200821,12.19223,12.185007,12.175836,12.170229,12.163336,12.159124,12.145033,12.130796,12.124872,12.126272,12.120416,12.110904,12.141612,12.081351,12.0619135
10.499645,12.245138,12.30652,12.316622,12.316022,12.332552,12.345414,12.348583,12.340065,12.34013,12.34215,12.333375,12.320428,12.310345,12.3027525,12.296928,12.290726,12.284712,12.275269,12.265614,12.255616,12.250784,12.246077,12.243814,12.241766,12.241169,12.242052,12.24395,12.245479,12.246032,12.24636,12.245866,12.244934,12.242689,12.239939,12.233795,12.22397,12.214676,12.212281,12.208441,12.203584,12.194977,12.18708,12.18084,12.180548,12.171678,12.159981,12.147809,12.141161,12.134295,12.129938,12.121724,12.112245,12.142911,12.0836935,12.057976
10.532627,12.266242,12.329014,12.339202,12.336875,12.351429,12.363181,12.364924,12.355552,12.355071,12.35664,12.345195,12.329596,12.31885,12.311966,12.306879,12.301165,12.294989,12.284719,12.273963,12.26323,12.2586155,12.2539835,12.251537,12.249205,12.248395,12.248897,12.250459,12.251471,12.251588,12.251368,12.250491,12.249163,12.246909,12.2443,12.239344,12.23245,12.224445,12.219671,12.213482,12.2086115,12.200072,12.191755,12.187369,12.1904955,12.17928,12.161336,12.150755,12.150617,12.143976,12.135941,12.126334,12.116663,12.146692,12.087229,12.0515
10.554934,12.278372,12.343024,12.354122,12.350792,12.364053,12.37494,12.375828,12.365902,12.363162,12.362506,12.35067,12.335486,12.322915,12.314939,12.311939,12.308585,12.30251,12.291682,12.280557,12.2695,12.264819,12.260136,12.25766,12.255256,12.254378,12.254732,12.256156,12.257026,12.257051,12.256648,12.2556,12.254129,12.25175,12.248653,12.243884,12.238716,12.23172,12.225787,12.218391,12.213538,12.204936,12.196431,12.191338,12.193616,12.18196,12.164198,12.153201,12.152596,12.147052,12.140633,12.131601,12.121552,12.151162,12.090756,12.045935
10.593371,12.29814,12.363948,12.375674,12.371495,12.383187,12.392743,12.392278,12.381455,12.375579,12.371931,12.359455,12.344945,12.330852,12.322018,12.321049,12.319838,12.313677,12.302133,12.290617,12.279151,12.274279,12.269358,12.266727,12.264095,12.263056,12.263149,12.264374,12.265035,12.264938,12.264322,12.263086,12.261458,12.258937,12.255262,12.250733,12.247702,12.24189,12.234365,12.225404,12.220441,12.212812,12.20607,12.2003765,12.199853,12.186918,12.169941,12.15849,12.157133,12.1535635,12.149942,12.142188,12.1309395,12.156443,12.091695,12.03478
10.625466,12.314349,12.379887,12.391581,12.387219,12.397981,12.40649,12.404861,12.393234,12.38532,12.379864,12.366762,12.352582,12.338211,12.32939,12.32927,12.328728,12.322294,12.310181,12.298356,12.286554,12.281496,12.27631,12.273485,12.270593,12.269384,12.269242,12.270305,12.270797,12.270607,12.269856,12.268522,12.266797,12.264205,12.260235,12.255918,12.254285,12.249117,12.240278,12.230168,12.225112,12.219001,12.214922,12.209221,12.205806,12.191395,12.174984,12.163379,12.161793,12.160193,12.158957,12.152184,12.139288,12.159388,12.089558,12.024694
10.671945,12.336126,12.40094,12.41176,12.406208,12.41542,12.423061,12.421323,12.410059,12.399454,12.390636,12.376527,12.3630085,12.348954,12.339693,12.337435,12.335139,12.328914,12.317963,12.307341,12.296174,12.290683,12.284904,12.281759,12.278483,12.277058,12.276638,12.277537,12.277855,12.277579,12.2767105,12.275296,12.273491,12.270855,12.266724,12.262567,12.261518,12.257277,12.249484,12.239365,12.232403,12.227259,12.227549,12.22262,12.215571,12.199572,12.184199,12.173013,12.1710825,12.166314,12.162173,12.159262,12.15012,12.1628685,12.084865,12.009428
10.706588,12.351142,12.415059,12.42463,12.417655,12.42561,12.433,12.432122,12.422048,12.40973,12.398124,12.383252,12.370328,12.357032,12.347213,12.341236,12.335891,12.330183,12.321321,12.312604,12.3025875,12.296676,12.290318,12.286904,12.283333,12.281758,12.281175,12.282,12.282235,12.281926,12.281022,12.279593,12.277774,12.275143,12.271071,12.266921,12.265297,12.2617035,12.256631,12.247722,12.238429,12.2332,12.236758,12.232777,12.223529,12.206799,12.192342,12.181867,12.179639,12.16865,12.158247,12.159544,12.156914,12.164509,12.080063,11.997627
10.758525,12.374167,12.436261,12.444102,12.435796,12.441775,12.447888,12.446132,12.435962,12.42223,12.409161,12.393895,12.381405,12.3685665,12.35861,12.351094,12.344419,12.3388815,12.330762,12.322706,12.312891,12.306544,12.299546,12.295713,12.2916565,12.289819,12.288937,12.289616,12.289682,12.289292,12.288307,12.286838,12.284943,12.282243,12.278116,12.273918,12.271732,12.269005,12.266523,12.260534,12.252902,12.247391,12.248772,12.242974,12.233399,12.217048,12.203477,12.193473,12.190617,12.174091,12.157859,12.160505,12.161024,12.162832,12.073042,11.980789
10.804094,12.394125,12.454151,12.460578,12.451789,12.456226,12.460835,12.456946,12.445372,12.431289,12.418914,12.403863,12.391441,12.37869,12.369004,12.362211,12.356019,12.350313,12.341602,12.332981,12.322563,12.315962,12.308549,12.304362,12.299871,12.297786,12.296604,12.297123,12.2969885,12.296482,12.295389,12.293855,12.291838,12.289011,12.284752,12.280438,12.277826,12.275616,12.274447,12.271282,12.267419,12.261542,12.257683,12.249034,12.240964,12.22578,12.212582,12.202335,12.198557,12.1797695,12.160985,12.1610985,12.159606,12.158128,12.067235,11.967646
10.867665,12.422018,12.478481,12.482997,12.474298,12.478559,12.483035,12.475633,12.459821,12.444678,12.43393,12.419309,12.406933,12.394429,12.384911,12.378142,12.371822,12.365964,12.356993,12.3481655,12.337371,12.330431,12.322479,12.317869,12.312826,12.31039,12.308717,12.308899,12.308331,12.307541,12.306163,12.304445,12.302145,12.299051,12.294532,12.290025,12.287164,12.285132,12.284506,12.282406,12.279794,12.274009,12.268747,12.259559,12.252232,12.2376795,12.224654,12.212704,12.206544,12.187467,12.168709,12.162906,12.154742,12.150593,12.060883,11.95144
10.933403,12.44802,12.501563,12.505193,12.497382,12.500394,12.50256,12.491709,12.473481,12.458482,12.449772,12.435803,12.423362,12.411108,12.401718,12.394878,12.388356,12.382344,12.373191,12.364265,12.353242,12.346058,12.337701,12.332773,12.327293,12.324566,12.322438,12.322265,12.321229,12.320111,12.318403,12.316459,12.313806,12.3103695,12.3055105,12.300743,12.297796,12.295557,12.294548,12.291979,12.288906,12.283489,12.279328,12.271087,12.263974,12.249522,12.236341,12.222105,12.213346,12.196252,12.180035,12.166954,12.149513,12.142935,12.056066,11.940837
11.011899,12.473805,12.526865,12.53145,12.524512,12.52115,12.514082,12.500343,12.485959,12.473577,12.466324,12.4530945,12.440555,12.428563,12.419312,12.412425,12.405726,12.399572,12.390245,12.381224,12.369994,12.362605,12.353902,12.348687,12.342843,12.339891,12.337399,12.336934,12.33549,12.334071,12.332065,12.329898,12.326868,12.323038,12.317785,12.312695,12.309527,12.30716,12.306072,12.3035755,12.300653,12.295555,12.291688,12.283798,12.276882,12.262888,12.250088,12.233989,12.22269,12.207199,12.192854,12.171872,12.144489,12.133171,12.0493355,11.9345875
11.1040945,12.502128,12.554456,12.560728,12.5558605,12.544021,12.52387,12.508516,12.502602,12.494608,12.488194,12.475778,12.463202,12.4515295,12.442445,12.435534,12.42868,12.422403,12.412948,12.403884,12.392542,12.385019,12.376069,12.370638,12.36453,12.3614235,12.358656,12.357958,12.356172,12.354482,12.352224,12.349856,12.346432,12.342148,12.336415,12.330886,12.327406,12.324775,12.323467,12.320877,12.318003,12.313118,12.309554,12.301604,12.294316,12.279395,12.265642,12.248226,12.236245,12.223048,12.210964,12.186308,12.152146,12.132141,12.04656,11.934471
11.192024,12.530435,12.579694,12.587758,12.587776,12.569174,12.535749,12.519373,12.52261,12.518984,12.5129385,12.501412,12.4890375,12.477559,12.468452,12.4615135,12.454567,12.448185,12.438644,12.429581,12.41819,12.410584,12.401517,12.396024,12.389662,12.386264,12.383178,12.3823,12.380222,12.378303,12.375839,12.373297,12.369503,12.364749,12.358496,12.352444,12.348572,12.345517,12.343814,12.340857,12.337688,12.333168,12.330548,12.323185,12.315881,12.298414,12.281196,12.262942,12.252844,12.2419,12.231625,12.2097225,12.174124,12.140324,12.044216,11.931124
11.309623,12.571465,12.615724,12.622108,12.623306,12.59992,12.5594845,12.544045,12.554237,12.554272,12.548647,12.537607,12.525218,12.514439,12.505942,12.499044,12.491891,12.485392,12.475781,12.466777,12.45535,12.44763,12.438207,12.432295,12.425737,12.422484,12.419282,12.418135,12.415716,12.413546,12.410896,12.408215,12.404072,12.398858,12.392079,12.385513,12.381299,12.377874,12.375779,12.372546,12.369576,12.364438,12.360844,12.350724,12.3405485,12.318821,12.298536,12.279739,12.272027,12.265089,12.258866,12.242277,12.207817,12.164445,12.06043,11.943817
11.406608,12.607771,12.647771,12.648973,12.645421,12.620896,12.583769,12.570599,12.58172,12.584177,12.580492,12.569366,12.555936,12.545884,12.538322,12.531244,12.523695,12.517195,12.507833,12.499192,12.488077,12.480493,12.470606,12.463807,12.457103,12.454534,12.451326,12.449614,12.4466505,12.444147,12.441228,12.438441,12.434137,12.428759,12.421743,12.414953,12.4106045,12.407073,12.404818,12.401777,12.399936,12.393247,12.386308,12.369707,12.353619,12.327667,12.307249,12.288023,12.280909,12.278925,12.278594,12.264869,12.230793,12.188488,12.0863085,11.964572
11.559828,12.66442,12.6993685,12.693679,12.682644,12.657569,12.627232,12.617397,12.6277895,12.627635,12.620922,12.609022,12.596987,12.589223,12.5839405,12.577842,12.57025,12.563346,12.553065,12.54369,12.531429,12.522856,12.511923,12.504557,12.497965,12.496133,12.493652,12.492319,12.489717,12.487345,12.484694,12.481986,12.477334,12.471369,12.463812,12.456661,12.452275,12.448762,12.446443,12.44323,12.441734,12.4329605,12.422646,12.400668,12.380294,12.35157,12.331502,12.312224,12.305567,12.30742,12.311765,12.300192,12.267865,12.231588,12.137033,12.013805
11.687178,12.709216,12.741203,12.731629,12.715745,12.690151,12.664065,12.65707,12.667421,12.660584,12.645901,12.632717,12.624288,12.61939,12.616755,12.612614,12.605545,12.597993,12.585846,12.574742,12.560123,12.54968,12.537603,12.530489,12.524285,12.522756,12.521509,12.521592,12.520328,12.518604,12.516733,12.514232,12.509091,12.502211,12.493902,12.486283,12.481885,12.478405,12.47607,12.47218,12.469627,12.459412,12.448019,12.425759,12.406106,12.377806,12.357704,12.338716,12.332446,12.33461,12.339297,12.327977,12.297592,12.2670555,12.18022,12.060438
11.880354,12.783832,12.810529,12.7950945,12.773009,12.746651,12.725887,12.71875,12.724839,12.711948,12.692958,12.680288,12.675688,12.673312,12.672361,12.669334,12.662204,12.653876,12.640142,12.627707,12.611314,12.599488,12.586454,12.57937,12.573208,12.571713,12.5710745,12.571961,12.571409,12.570042,12.56876,12.566595,12.561343,12.554094,12.545548,12.5379505,12.533913,12.530815,12.528652,12.524543,12.521518,12.510591,12.498621,12.476186,12.456853,12.4291725,12.409654,12.391303,12.385381,12.387466,12.392286,12.382393,12.355642,12.33148,12.253707,12.1406765
12.024461,12.843834,12.865577,12.845376,12.819327,12.792569,12.775356,12.7651615,12.76507,12.750647,12.734051,12.723488,12.720515,12.7187605,12.717472,12.713963,12.706176,12.697429,12.683417,12.670932,12.654527,12.642716,12.629512,12.622162,12.615643,12.613913,12.612826,12.613331,12.612342,12.610761,12.609468,12.607549,12.602622,12.5958,12.587718,12.580665,12.577185,12.574608,12.572673,12.568942,12.566399,12.555873,12.544027,12.521267,12.501299,12.473845,12.455228,12.437515,12.431745,12.433676,12.438627,12.4306,12.406993,12.386033,12.313324,12.206321
12.241785,12.9363985,12.95723,12.9349375,12.903518,12.872802,12.855614,12.840917,12.835705,12.819798,12.805338,12.797089,12.7960415,12.794838,12.793018,12.789023,12.780524,12.771178,12.75661,12.743864,12.727161,12.715128,12.701548,12.693882,12.686943,12.684945,12.683465,12.683696,12.682456,12.680858,12.6798525,12.678482,12.674377,12.668247,12.660397,12.653407,12.650054,12.647951,12.646692,12.643964,12.642167,12.632641,12.621523,12.599483,12.579784,12.552931,12.5348425,12.517185,12.51099,12.51184,12.5164585,12.511478,12.492394,12.474041,12.405186,12.302332
12.405403,13.008274,13.032492,13.01193,12.977069,12.941358,12.9207535,12.902562,12.895997,12.87973,12.866333,12.859412,12.859422,12.858367,12.856051,12.851701,12.842717,12.832937,12.817913,12.804904,12.78787,12.775583,12.761673,12.75379,12.746573,12.744401,12.7427435,12.742912,12.741699,12.740263,12.739648,12.738802,12.735536,12.729984,12.722059,12.714695,12.711032,12.70913,12.708603,12.706939,12.705774,12.697344,12.687203,12.666523,12.6477995,12.62157,12.603371,12.585174,12.578207,12.57764,12.581608,12.579027,12.563157,12.545214,12.476663,12.373595
12.613583,13.104796,13.130783,13.11194,13.07468,13.0350485,13.011677,12.989856,12.981215,12.964219,12.952041,12.947143,12.949325,12.950138,12.948192,12.942372,12.931417,12.9210205,12.905553,12.892137,12.874537,12.861806,12.847238,12.8388605,12.831029,12.828485,12.826688,12.82705,12.826162,12.825101,12.825074,12.824758,12.821971,12.816689,12.808845,12.801621,12.798256,12.797089,12.797424,12.796905,12.796391,12.789439,12.780875,12.762056,12.744403,12.718869,12.700533,12.681556,12.673457,12.67083,12.673517,12.672519,12.659459,12.642536,12.574665,12.468263
12.757756,13.178824,13.204252,13.186576,13.149591,13.10933,13.085146,13.061729,13.0518265,13.034617,13.023417,13.020051,13.023936,13.026764,13.025475,13.01806,13.004874,12.993736,12.977635,12.963567,12.945274,12.932172,12.917048,12.90822,12.899844,12.896979,12.895179,12.89587,12.895439,12.89479,12.895267,12.895249,12.892479,12.887116,12.879406,12.872584,12.869746,12.869292,12.8701515,12.870354,12.870333,12.86452,12.85715,12.83979,12.823019,12.798064,12.779628,12.76005,12.751056,12.746825,12.748269,12.7471485,12.734881,12.718785,12.651308,12.539928
12.92179,13.274511,13.296025,13.277661,13.241767,13.203319,13.1810255,13.1569805,13.145007,13.12876,13.120104,13.118335,13.12274,13.125798,13.123873,13.115578,13.100487,13.0871,13.068094,13.051681,13.031687,13.0184765,13.003156,12.994011,12.985276,12.9822235,12.980436,12.98135,12.981261,12.980958,12.981932,12.98235,12.980014,12.97498,12.967587,12.96104,12.958366,12.95825,12.959405,12.960657,12.962107,12.957506,12.950156,12.933817,12.918546,12.894802,12.876605,12.856836,12.847192,12.841863,12.842374,12.840687,12.828723,12.814029,12.747877,12.631352
13.042062,13.355778,13.372377,13.353325,13.320341,13.2860565,13.267114,13.24447,13.231695,13.217222,13.210896,13.210009,13.213836,13.215855,13.21268,13.204128,13.187995,13.172407,13.150376,13.131606,13.109851,13.096398,13.081008,13.071867,13.063178,13.060186,13.058538,13.059606,13.059906,13.060017,13.061432,13.062153,13.060166,13.055281,13.047829,13.041028,13.038044,13.03775,13.0388565,13.0406885,13.043189,13.039283,13.031594,13.0160265,13.002257,12.979885,12.9621725,12.942724,12.932919,12.927047,12.926779,12.92375,12.911165,12.897671,12.833613,12.714825
13.169796,13.439726,13.452682,13.435855,13.408601,13.379141,13.361858,13.341989,13.331185,13.318581,13.312935,13.312388,13.315778,13.317092,13.312948,13.30362,13.286562,13.270102,13.246942,13.227354,13.204165,13.189191,13.172866,13.163976,13.155575,13.152756,13.151364,13.152669,13.153796,13.154799,13.156981,13.157957,13.155999,13.150534,13.141877,13.133787,13.130119,13.129549,13.130738,13.132533,13.134477,13.131076,13.124743,13.111244,13.099024,13.078133,13.060948,13.041922,13.031935,13.024684,13.022649,13.017995,13.005015,12.992125,12.930879,12.813779
13.282991,13.518328,13.530818,13.517742,13.495235,13.470513,13.455538,13.439197,13.430821,13.420039,13.414687,13.414471,13.417688,13.418696,13.414027,13.40408,13.38655,13.370032,13.346882,13.327326,13.303659,13.287769,13.271036,13.262547,13.254708,13.252292,13.251396,13.253054,13.255243,13.257291,13.260141,13.261054,13.258657,13.25223,13.24233,13.232927,13.228316,13.227013,13.227938,13.228997,13.229551,13.226075,13.221189,13.209616,13.198614,13.179083,13.162568,13.144341,13.134588,13.126377,13.1226635,13.115707,13.101686,13.089558,13.032446,12.919672
13.380354,13.58735,13.602064,13.5918255,13.569958,13.54824,13.5368595,13.523099,13.515254,13.505997,13.501901,13.50271,13.506333,13.507651,13.502949,13.492857,13.475046,13.458372,13.434835,13.414515,13.391004,13.376339,13.360729,13.352463,13.345142,13.343216,13.3429365,13.345023,13.348313,13.35133,13.354494,13.354922,13.351611,13.344276,13.334234,13.324658,13.319276,13.316932,13.317197,13.317336,13.316945,13.312963,13.308272,13.297406,13.287177,13.268682,13.252873,13.235602,13.226392,13.218272,13.213749,13.203667,13.187432,13.176993,13.12488,13.014461
13.485485,13.668002,13.688028,13.68131,13.657712,13.63925,13.633854,13.62255,13.613348,13.605177,13.602913,13.60499,13.609184,13.611063,13.606567,13.596505,13.578542,13.56154,13.538207,13.51856,13.496518,13.483334,13.469039,13.4610815,13.454429,13.453112,13.453629,13.45624,13.4602165,13.463611,13.466826,13.466921,13.463102,13.455362,13.445516,13.435884,13.4297,13.426084,13.425357,13.4244175,13.423325,13.418701,13.413664,13.402953,13.393266,13.37572,13.360748,13.344781,13.336527,13.329044,13.32426,13.312153,13.294628,13.285847,13.238954,13.133339
13.565701,13.732641,13.75895,13.755553,13.729123,13.713837,13.71524,13.70587,13.694025,13.686163,13.685535,13.688442,13.692864,13.695022,13.69057,13.680478,13.662214,13.644253,13.62141,13.604136,13.5844555,13.571918,13.558084,13.550224,13.543813,13.542725,13.543776,13.546855,13.550689,13.553557,13.556643,13.556961,13.553643,13.546313,13.536478,13.526384,13.5195675,13.515038,13.513516,13.511866,13.51054,13.5055065,13.499969,13.489169,13.479856,13.462995,13.448651,13.433907,13.426693,13.41968,13.414798,13.402934,13.386122,13.3780155,13.334074,13.234217
13.675222,13.825691,13.854823,13.854375,13.828356,13.816596,13.82241,13.814235,13.800465,13.792866,13.7935095,13.797107,13.801805,13.804346,13.800144,13.7900095,13.772063,13.754666,13.733659,13.719207,13.700921,13.686922,13.672686,13.665992,13.66124,13.661349,13.663263,13.666367,13.669959,13.672423,13.675479,13.676096,13.673289,13.666374,13.656627,13.64621,13.638923,13.63363,13.631326,13.629123,13.627779,13.622931,13.617595,13.607111,13.598013,13.581842,13.568248,13.554338,13.547641,13.541203,13.536919,13.526659,13.511687,13.503786,13.462811,13.371786
13.758602,13.899285,13.925681,13.925867,13.903339,13.893731,13.8994,13.891344,13.877645,13.870321,13.871261,13.875114,13.880011,13.882874,13.878942,13.868535,13.851243,13.835837,13.817327,13.804885,13.786125,13.76873,13.753282,13.748625,13.746757,13.748962,13.751482,13.753476,13.75674,13.759422,13.762618,13.763319,13.760476,13.753483,13.743792,13.733371,13.725946,13.720363,13.717671,13.715333,13.7141285,13.7100725,13.705795,13.696032,13.686837,13.67102,13.65795,13.643984,13.6368685,13.630735,13.62734,13.618685,13.6052475,13.597001,13.557802,13.474002
13.884578,14.006171,14.027921,14.030966,14.017161,14.009514,14.010042,14.000637,13.988699,13.981674,13.982239,13.986359,13.991821,13.995105,13.991935,13.982628,13.967262,13.954689,13.937307,13.923007,13.902101,13.883982,13.868454,13.864376,13.862802,13.864815,13.869648,13.874866,13.88003,13.88271,13.88604,13.886656,13.88398,13.877307,13.868075,13.8580475,13.850799,13.845111,13.8421,13.83949,13.838207,13.834507,13.830813,13.821778,13.813004,13.797868,13.785311,13.7713175,13.763844,13.758365,13.756349,13.749947,13.738691,13.730734,13.694058,13.618035
