5.8738694,6.864093,7.780916,8.789771,9.327737,9.809664,9.966166,10.033,9.950686,9.804274,9.6561165,9.515316,9.448712,9.403654,9.423113,9.468519,9.566442,9.678273,9.843313,10.003478,10.207815,10.364159,10.555549,10.688249,10.8410635,10.929364,11.0250635,11.069976,11.131428,11.169942,11.221591,11.257974,11.302183,11.341391,11.397532,11.465369,11.545142,11.646421,11.750865,11.868363,11.956222,12.044315,12.096736,12.150929,12.181364,12.216065,12.23561,12.253908,12.258526,12.246663,12.21295,12.145777,12.000888,11.740974,11.1432495,9.962922,8.360373
7.1204205,8.863777,9.895593,10.783162,11.092533,11.364194,11.456429,11.52843,11.5243635,11.50966,11.48172,11.457148,11.446447,11.44601,11.461936,11.485611,11.522344,11.561739,11.615579,11.6671505,11.730468,11.77837,11.832676,11.867403,11.904683,11.924716,11.941803,11.94543,11.95197,11.956717,11.968216,11.979882,11.991828,12.001851,12.016587,12.034235,12.05428,12.080539,12.108413,12.141812,12.168321,12.196334,12.213474,12.232708,12.244964,12.257684,12.264021,12.264205,12.257458,12.238574,12.214796,12.195506,12.146924,12.073047,11.747323,11.111256,9.779187
8.555162,10.67232,11.523876,12.112495,12.24509,12.357264,12.399567,12.454636,12.482872,12.528279,12.561472,12.601271,12.626706,12.653098,12.667235,12.6786785,12.680749,12.679605,12.671085,12.661423,12.645408,12.632359,12.610534,12.591385,12.566215,12.550045,12.527031,12.511022,12.490746,12.478554,12.467659,12.463613,12.455835,12.448119,12.43799,12.426059,12.411198,12.394293,12.3785715,12.364246,12.355861,12.34952,12.346221,12.345471,12.347604,12.348456,12.347882,12.339645,12.328465,12.308654,12.291813,12.288519,12.284931,12.31252,12.186836,12.014545,11.003866
9.372171,11.2953415,11.779985,12.052327,12.140921,12.216931,12.246133,12.272805,12.276889,12.288822,12.299764,12.3247795,12.34968,12.372717,12.386847,12.399902,12.407718,12.414298,12.417829,12.4195385,12.418687,12.417325,12.412014,12.405794,12.397526,12.3924265,12.384182,12.377765,12.369122,12.363321,12.356926,12.353015,12.346687,12.340695,12.333574,12.326257,12.31735,12.308801,12.302049,12.29782,12.296583,12.2977705,12.299407,12.304036,12.309151,12.31439,12.316899,12.315507,12.310717,12.298411,12.283591,12.261231,12.234041,12.231936,12.137165,12.118284,11.32592
10.11958,11.867405,12.101098,12.154849,12.206903,12.244387,12.250353,12.262156,12.269798,12.279947,12.287729,12.308409,12.329804,12.34927,12.3610115,12.371533,12.377732,12.383355,12.386636,12.388297,12.387779,12.386641,12.382443,12.377611,12.37143,12.367816,12.361904,12.357277,12.350523,12.3454685,12.338269,12.332424,12.323944,12.316711,12.309568,12.303752,12.296959,12.291102,12.286743,12.284472,12.28417,12.285662,12.287201,12.291059,12.295089,12.299686,12.30216,12.304549,12.305162,12.30136,12.293241,12.273925,12.247104,12.231745,12.161166,12.256756,11.6375065
10.351611,11.962932,12.136195,12.150052,12.202248,12.233241,12.227441,12.241761,12.264116,12.285658,12.296512,12.313516,12.326523,12.340306,12.348995,12.356368,12.360441,12.36417,12.366073,12.366888,12.365685,12.364078,12.359287,12.354076,12.346922,12.342327,12.334689,12.328617,12.320025,12.313821,12.305548,12.299298,12.290008,12.282635,12.276695,12.2732525,12.269298,12.26633,12.264153,12.2632885,12.263534,12.264629,12.265448,12.267464,12.269557,12.272079,12.273417,12.27705,12.280645,12.282398,12.28036,12.276089,12.26114,12.238153,12.156432,12.241938,11.667074
10.562117,12.108616,12.211041,12.159467,12.191807,12.218384,12.225973,12.245225,12.2628,12.279969,12.287756,12.299169,12.307196,12.316557,12.322606,12.327093,12.329043,12.331055,12.331506,12.330825,12.328895,12.327545,12.323881,12.319811,12.314366,12.310966,12.305414,12.301073,12.294316,12.289067,12.282609,12.278135,12.271848,12.267153,12.263412,12.2612095,12.258338,12.256076,12.254566,12.254083,12.254406,12.255263,12.255764,12.257227,12.2589035,12.260703,12.261475,12.26362,12.26575,12.26647,12.265401,12.269938,12.266384,12.248587,12.175526,12.269072,11.753423
10.548467,12.142899,12.222069,12.141125,12.161433,12.193813,12.222931,12.246701,12.250826,12.2576475,12.261225,12.268682,12.275508,12.283168,12.288309,12.291927,12.293355,12.294917,12.294961,12.293575,12.291829,12.291529,12.289871,12.287431,12.284397,12.282705,12.280062,12.27809,12.27396,12.270173,12.266304,12.264248,12.262014,12.260661,12.259028,12.25722,12.254347,12.251642,12.250006,12.249492,12.249834,12.250835,12.251465,12.253359,12.255618,12.257699,12.25841,12.258188,12.25705,12.252982,12.249017,12.256035,12.259912,12.253977,12.192859,12.279773,11.789125
10.473094,12.186911,12.231998,12.119613,12.149668,12.187439,12.213624,12.231304,12.229555,12.233355,12.238029,12.246481,12.254521,12.263256,12.269357,12.274578,12.2773695,12.279476,12.279791,12.278754,12.277661,12.278148,12.277271,12.27516,12.2723465,12.270654,12.268135,12.266336,12.2621975,12.258247,12.254259,12.252237,12.250452,12.249678,12.248438,12.246857,12.24422,12.241773,12.240454,12.240226,12.2407055,12.241771,12.242396,12.244269,12.246507,12.248607,12.249345,12.249703,12.249302,12.244134,12.238409,12.245631,12.252474,12.25389,12.202247,12.286133,11.818969
10.326136,12.202661,12.2279415,12.096938,12.144428,12.186939,12.201145,12.210292,12.207446,12.211929,12.219288,12.230062,12.239621,12.250073,12.257612,12.264889,12.269435,12.272529,12.273546,12.273277,12.272886,12.27383,12.273068,12.27077,12.26731,12.264929,12.261421,12.2589245,12.253833,12.249221,12.2442255,12.241426,12.238771,12.237544,12.236111,12.234779,12.232553,12.230683,12.229865,12.230076,12.230816,12.23196,12.232503,12.234133,12.236087,12.238027,12.238751,12.240474,12.241951,12.237567,12.231328,12.237477,12.244351,12.250644,12.205986,12.287211,11.834385
10.215717,12.215348,12.2296915,12.083635,12.137078,12.181061,12.190883,12.197672,12.195488,12.200812,12.20886,12.218748,12.226681,12.2362,12.243461,12.250403,12.254907,12.258181,12.259438,12.259213,12.2588215,12.259749,12.259038,12.256878,12.253386,12.250795,12.247106,12.244559,12.239415,12.234797,12.22983,12.227143,12.224838,12.224108,12.223323,12.2227,12.2212515,12.220138,12.219929,12.220647,12.221745,12.222983,12.223371,12.224639,12.226263,12.227815,12.228302,12.230093,12.231931,12.228707,12.223824,12.231143,12.23935,12.249287,12.209911,12.291431,11.85358
10.113975,12.2137575,12.230662,12.078889,12.132474,12.17475,12.1819515,12.188866,12.189251,12.195407,12.202465,12.210441,12.2164,12.224651,12.231466,12.23769,12.241884,12.245368,12.246968,12.246764,12.246275,12.247059,12.246372,12.244452,12.241092,12.238407,12.234726,12.232277,12.227318,12.222881,12.218201,12.21581,12.214053,12.213939,12.213916,12.214056,12.213423,12.213044,12.213397,12.214532,12.215928,12.217101,12.217154,12.217758,12.218805,12.219614,12.219617,12.2209635,12.2227125,12.220754,12.217799,12.227205,12.237338,12.250193,12.215129,12.297201,11.875665
10.056851,12.206775,12.2318945,12.081089,12.131808,12.171023,12.176949,12.184493,12.186972,12.192774,12.197765,12.20441,12.20998,12.217988,12.224917,12.231148,12.235509,12.239398,12.241426,12.241398,12.241006,12.241807,12.24124,12.239532,12.236314,12.233597,12.229977,12.227644,12.222862,12.218573,12.214096,12.211886,12.210449,12.2106695,12.211041,12.211555,12.211322,12.211274,12.211859,12.2130995,12.214559,12.215497,12.215178,12.215099,12.215566,12.215637,12.215169,12.216099,12.217755,12.21621,12.214115,12.225417,12.237743,12.252688,12.220539,12.301861,11.894896
9.999594,12.183134,12.228077,12.088028,12.134127,12.168945,12.173724,12.182378,12.187509,12.193116,12.195829,12.201363,12.206977,12.215223,12.222674,12.229267,12.23406,12.238587,12.241262,12.241617,12.241509,12.242412,12.242073,12.240676,12.237746,12.235107,12.231645,12.229451,12.224862,12.220708,12.216396,12.214314,12.213098,12.213539,12.214169,12.214916,12.21494,12.2151,12.215852,12.217143,12.218625,12.219263,12.21851,12.217652,12.217471,12.216653,12.215574,12.2158785,12.217292,12.216004,12.214628,12.227101,12.240855,12.257837,12.228582,12.308947,11.913887
9.961705,12.158026,12.221535,12.094069,12.137457,12.169173,12.172636,12.181874,12.189059,12.195132,12.19692,12.202187,12.208036,12.216773,12.2248335,12.231912,12.237153,12.242204,12.245399,12.246139,12.246335,12.247356,12.247225,12.246065,12.243382,12.240858,12.237512,12.235366,12.23082,12.22667,12.2223425,12.220226,12.218989,12.219428,12.220061,12.220832,12.220883,12.221104,12.221938,12.223291,12.224814,12.225325,12.224354,12.223103,12.222601,12.221273,12.219795,12.219665,12.2208805,12.219738,12.218724,12.231002,12.2445965,12.262792,12.235315,12.315137,11.923335
9.920149,12.11857,12.209144,12.101405,12.140812,12.170022,12.174651,12.185015,12.192696,12.198362,12.19916,12.203962,12.209969,12.21917,12.227868,12.235378,12.24103,12.246644,12.25045,12.251652,12.252242,12.253414,12.253587,12.252786,12.250538,12.248257,12.245226,12.243274,12.239008,12.235059,12.230977,12.229023,12.228008,12.228619,12.229442,12.230345,12.230504,12.230775,12.231657,12.232952,12.234402,12.234551,12.233139,12.2311535,12.230072,12.2279005,12.225811,12.224932,12.225726,12.224545,12.223788,12.235195,12.247926,12.267247,12.241737,12.321494,11.931632
9.898043,12.087785,12.198092,12.105569,12.141993,12.17076,12.178429,12.189802,12.196073,12.200612,12.20086,12.205207,12.211164,12.220499,12.229469,12.237083,12.24286,12.248754,12.252914,12.254387,12.255225,12.256493,12.256893,12.256369,12.254482,12.25243,12.249726,12.248001,12.244099,12.240433,12.236727,12.235051,12.234391,12.235271,12.236387,12.237485,12.237792,12.238101,12.238977,12.240136,12.241442,12.241198,12.239359,12.236698,12.235092,12.2322035,12.22963,12.228108,12.228489,12.22711,12.226374,12.236803,12.248552,12.268312,12.243875,12.324111,11.934037
9.870247,12.056808,12.188535,12.111863,12.14476,12.172826,12.18376,12.196544,12.201761,12.205487,12.2053,12.209328,12.215312,12.224906,12.23426,12.242093,12.248046,12.254173,12.258627,12.260394,12.261489,12.262807,12.263407,12.263157,12.261723,12.260026,12.257794,12.256376,12.252974,12.249702,12.2465,12.245171,12.244902,12.246021,12.247369,12.248557,12.248887,12.249091,12.24985,12.250766,12.251853,12.251153,12.248863,12.245504,12.243361,12.23975,12.2366905,12.234587,12.234646,12.233186,12.232546,12.242015,12.252755,12.272853,12.249721,12.330002,11.942774
9.854367,12.043676,12.185895,12.116491,12.147389,12.17503,12.187725,12.201507,12.2064905,12.21012,12.209877,12.213894,12.21994,12.229737,12.2393265,12.247336,12.253384,12.25954,12.264039,12.265937,12.267138,12.268432,12.269089,12.268953,12.267801,12.266386,12.264507,12.263304,12.260263,12.257281,12.2544365,12.253332,12.253286,12.254494,12.2558975,12.257031,12.257252,12.257271,12.257867,12.258566,12.259477,12.258515,12.256001,12.252324,12.249942,12.246017,12.24275,12.240458,12.240466,12.23907,12.238529,12.247587,12.257864,12.277957,12.255573,12.3354845,11.952434
9.839833,12.028687,12.182825,12.121864,12.15033,12.177427,12.192206,12.207182,12.211909,12.215355,12.214924,12.218767,12.224743,12.234585,12.244274,12.252296,12.258294,12.26435,12.268807,12.270798,12.272099,12.273368,12.274123,12.274157,12.273384,12.272332,12.27092,12.270002,12.267454,12.264874,12.262528,12.261757,12.262077,12.263482,12.265048,12.266184,12.266321,12.266145,12.266554,12.266983,12.267667,12.266356,12.263544,12.259466,12.256807,12.25252,12.249011,12.246468,12.246374,12.245001,12.244559,12.253291,12.263239,12.283336,12.261994,12.341325,11.965427
9.838198,12.022191,12.182094,12.125425,12.152447,12.179278,12.195337,12.2111025,12.21575,12.219075,12.218439,12.22203,12.22779,12.237417,12.246933,12.254722,12.260477,12.2662735,12.270537,12.272465,12.2737465,12.274974,12.275785,12.2759285,12.275424,12.274632,12.273577,12.272896,12.270761,12.268526,12.266618,12.266149,12.266828,12.268457,12.270215,12.271398,12.271506,12.271196,12.271468,12.271694,12.272202,12.270643,12.267629,12.263307,12.260503,12.256027,12.252398,12.249722,12.249566,12.248193,12.247819,12.256553,12.26655,12.286574,12.266019,12.345005,11.976224
9.844656,12.016783,12.18256,12.130744,12.156169,12.182972,12.200832,12.217632,12.222053,12.225007,12.2239,12.226885,12.232123,12.241113,12.250063,12.257209,12.262368,12.267603,12.271394,12.273018,12.274079,12.275162,12.275974,12.276222,12.276021,12.275533,12.274967,12.27467,12.2732115,12.271561,12.270401,12.270464,12.271792,12.27385,12.275992,12.277314,12.277443,12.276973,12.277064,12.277007,12.277276,12.275389,12.272108,12.267457,12.2644415,12.259697,12.255899,12.2530365,12.252795,12.251433,12.251171,12.259995,12.270144,12.290005,12.270518,12.350111,11.990719
9.866289,12.015502,12.183743,12.135212,12.159683,12.186704,12.205952,12.223577,12.227855,12.230496,12.228949,12.231349,12.236047,12.244312,12.252593,12.259025,12.263547,12.268196,12.271477,12.272723,12.273501,12.274438,12.275234,12.27555,12.275579,12.275327,12.275192,12.275265,12.274468,12.273391,12.272972,12.27357,12.275555,12.278051,12.280583,12.282051,12.282215,12.281601,12.281519,12.281193,12.281247,12.279082,12.275598,12.270695,12.267514,12.262581,12.25868,12.255713,12.255434,12.254132,12.254011,12.263057,12.273474,12.29313,12.274617,12.355239,12.004915
9.901333,12.013966,12.183985,12.139327,12.163027,12.190121,12.210307,12.228612,12.232969,12.235555,12.233776,12.235859,12.240226,12.248025,12.25585,12.261806,12.265895,12.27013,12.273048,12.274042,12.274651,12.275507,12.276344,12.276755,12.277049,12.277055,12.277362,12.277792,12.277628,12.277095,12.277371,12.278458,12.281018,12.28387,12.286696,12.288226,12.28835,12.287535,12.287228,12.286607,12.286436,12.28402,12.280371,12.275283,12.271983,12.266948,12.26302,12.260057,12.259822,12.258677,12.258761,12.268138,12.278913,12.29833,12.280903,12.3621855,12.022865
9.952206,12.011902,12.182501,12.142133,12.16522,12.192646,12.213933,12.233079,12.237591,12.240325,12.238521,12.2405205,12.2447195,12.252237,12.259766,12.265458,12.269321,12.273329,12.276058,12.276917,12.277478,12.278361,12.279318,12.279835,12.280377,12.280614,12.281321,12.282077,12.282481,12.282431,12.283333,12.284863,12.287951,12.291129,12.294212,12.295783,12.295867,12.294859,12.294322,12.29339,12.292965,12.290264,12.286434,12.281125,12.277666,12.2725,12.2685375,12.265581,12.265392,12.264464,12.264806,12.274355,12.285267,12.304536,12.288164,12.369702,12.040011
10.0046015,12.008712,12.179968,12.143984,12.166083,12.194145,12.217391,12.237855,12.242389,12.245298,12.243549,12.245525,12.249586,12.256855,12.264125,12.269623,12.273357,12.277238,12.279885,12.280689,12.281304,12.2823105,12.283463,12.284111,12.284886,12.285319,12.286378,12.287432,12.288332,12.288694,12.290149,12.2920885,12.29569,12.299208,12.302566,12.304214,12.304313,12.303159,12.302428,12.301171,12.3004465,12.297354,12.293237,12.287538,12.283787,12.278299,12.274177,12.271041,12.270779,12.269987,12.270548,12.279825,12.290373,12.309529,12.294089,12.375566,12.052519
10.06483,12.002978,12.175192,12.14502,12.16667,12.195729,12.220888,12.242624,12.247141,12.250206,12.248519,12.250489,12.254438,12.2615,12.268561,12.273931,12.277596,12.281397,12.283979,12.284719,12.285356,12.286467,12.287767,12.288497,12.289464,12.290075,12.291484,12.292848,12.2942705,12.295071,12.297134,12.29954,12.30372,12.307633,12.3113165,12.313075,12.313238,12.311983,12.311083,12.309521,12.308509,12.305056,12.300698,12.294674,12.290673,12.2849455,12.280731,12.277522,12.277266,12.276756,12.27766,12.286804,12.29709,12.31652,12.302033,12.383275,12.064504
10.106837,11.997508,12.170977,12.145879,12.1678915,12.197788,12.223779,12.246033,12.250471,12.253494,12.251738,12.253604,12.257434,12.264309,12.271197,12.2764435,12.280018,12.283705,12.286155,12.2867565,12.287285,12.288368,12.2896595,12.29037,12.291408,12.292127,12.2937765,12.295368,12.297188,12.298337,12.300886,12.303673,12.308314,12.312536,12.316482,12.318343,12.318573,12.317271,12.316281,12.314565,12.313414,12.309834,12.305429,12.299358,12.295311,12.289604,12.285459,12.282389,12.282267,12.282116,12.283374,12.292659,12.302976,12.322877,12.309099,12.390168,12.073327
10.158702,11.988963,12.163553,12.144849,12.167847,12.198813,12.225279,12.248001,12.2526045,12.2558155,12.254129,12.2560625,12.2599,12.266781,12.273672,12.278963,12.282582,12.286284,12.288707,12.289252,12.289717,12.290769,12.292037,12.292716,12.29384,12.294703,12.29665,12.298518,12.3008,12.302344,12.305465,12.308698,12.3138685,12.318438,12.322672,12.324654,12.324983,12.323659,12.322577,12.320681,12.319361,12.315634,12.311183,12.305088,12.301029,12.295416,12.291409,12.288598,12.28871,12.289024,12.290767,12.300902,12.312047,12.332978,12.319905,12.400915,12.084458
10.195919,11.981385,12.156464,12.142309,12.166191,12.197882,12.224416,12.247461,12.252416,12.256003,12.254525,12.256686,12.260662,12.267743,12.274812,12.2803,12.284088,12.287947,12.290494,12.291121,12.29164,12.292713,12.294004,12.294683,12.295897,12.29688,12.29905,12.3011055,12.303685,12.305469,12.30895,12.312471,12.317973,12.322749,12.327154,12.329203,12.329611,12.3282795,12.327129,12.325088,12.32362,12.319744,12.315219,12.309069,12.304986,12.299423,12.295507,12.292871,12.293148,12.293739,12.295811,12.307017,12.31932,12.341197,12.328459,12.4094305,12.092515
10.246096,11.974749,12.149254,12.140024,12.165193,12.197907,12.224486,12.247911,12.253312,12.257386,12.25618,12.258649,12.262812,12.270159,12.277452,12.283171,12.28714,12.291153,12.293802,12.294491,12.295015,12.296046,12.297294,12.297941,12.299252,12.300393,12.302877,12.305216,12.308245,12.310396,12.314406,12.318335,12.324307,12.329381,12.334025,12.336175,12.336697,12.335384,12.33418,12.331987,12.330357,12.326326,12.321736,12.315564,12.311481,12.306046,12.302298,12.299988,12.300569,12.301669,12.304288,12.316956,12.330795,12.354202,12.342093,12.423798,12.104584
10.2808485,11.972849,12.146099,12.139395,12.165484,12.198936,12.225538,12.249191,12.254852,12.259225,12.258194,12.260864,12.26515,12.272668,12.280095,12.285944,12.289998,12.294068,12.296734,12.297421,12.297894,12.298844,12.30001,12.3006115,12.30197,12.303215,12.305927,12.308479,12.311856,12.314294,12.318698,12.322925,12.329246,12.334542,12.339366,12.341595,12.342209,12.34093,12.339714,12.337452,12.335735,12.331625,12.327011,12.320845,12.316777,12.311456,12.307844,12.305808,12.306647,12.30819,12.311256,12.3248825,12.339696,12.364301,12.352752,12.435473,12.113549
10.319301,11.972438,12.143861,12.13966,12.167001,12.201468,12.228128,12.252119,12.258153,12.262862,12.261953,12.264737,12.26905,12.276642,12.284109,12.289936,12.293924,12.297956,12.30056,12.3011875,12.301531,12.302316,12.303338,12.303885,12.305305,12.306675,12.309666,12.312484,12.3163185,12.319152,12.324058,12.328634,12.335358,12.340894,12.34589,12.348162,12.348815,12.347527,12.346288,12.343993,12.342226,12.338168,12.33367,12.327753,12.323898,12.318984,12.3157215,12.314266,12.315582,12.317846,12.321557,12.336482,12.352609,12.378926,12.368368,12.453356,12.127803
10.338776,11.974274,12.144228,12.140858,12.1690235,12.204169,12.23088,12.255113,12.261409,12.266289,12.265378,12.268121,12.272351,12.279878,12.287267,12.292928,12.296741,12.300653,12.303153,12.303696,12.303905,12.304534,12.305433,12.305952,12.30741,12.30885,12.312008,12.314986,12.319127,12.322234,12.327453,12.332225,12.3391695,12.344821,12.349879,12.352134,12.352752,12.351423,12.350163,12.347891,12.346145,12.342233,12.337921,12.332344,12.328769,12.324306,12.321392,12.320481,12.322214,12.325055,12.329232,12.345038,12.362054,12.389607,12.379902,12.467133,12.139066
10.363964,11.98027,12.147509,12.144005,12.1728,12.208514,12.235295,12.259831,12.266468,12.271598,12.27072,12.27346,12.27762,12.285093,12.292393,12.297859,12.301462,12.305249,12.307647,12.308111,12.308187,12.308643,12.3094225,12.309937,12.311478,12.3130245,12.316418,12.319621,12.324172,12.327634,12.333255,12.338271,12.345501,12.351308,12.356459,12.358701,12.359296,12.357928,12.356646,12.354361,12.352582,12.348736,12.34455,12.33923,12.335866,12.331788,12.329196,12.328827,12.331007,12.334484,12.339225,12.356291,12.374642,12.403835,12.39524,12.485515,12.154502
10.380432,11.988342,12.152838,12.147989,12.17693,12.212797,12.239569,12.264232,12.271053,12.276295,12.275407,12.278111,12.2822,12.289597,12.296801,12.302094,12.305527,12.30921,12.31153,12.311945,12.311939,12.312282,12.312986,12.313511,12.31512,12.316737,12.320285,12.323636,12.328458,12.332159,12.338029,12.343181,12.350577,12.356474,12.36167,12.363897,12.364473,12.363078,12.361791,12.359497,12.357685,12.353853,12.349722,12.344512,12.341241,12.337357,12.334935,12.334883,12.3373375,12.34122,12.346337,12.364319,12.383669,12.414062,12.406322,12.498925,12.166011
10.401968,12.000001,12.160634,12.1538315,12.183188,12.2192335,12.245725,12.270186,12.276987,12.282087,12.281033,12.283502,12.287385,12.2945595,12.301569,12.306601,12.309782,12.313265,12.315425,12.315741,12.315601,12.315781,12.316347,12.316836,12.318468,12.320141,12.32381,12.327275,12.332352,12.336298,12.342406,12.347676,12.355199,12.361145,12.366354,12.368544,12.369068,12.367646,12.366377,12.364146,12.362378,12.358694,12.354731,12.349804,12.346746,12.343232,12.341108,12.341549,12.344406,12.348878,12.354498,12.373342,12.393593,12.425475,12.418898,12.514094,12.178542
10.420121,12.011923,12.168862,12.159886,12.189586,12.225687,12.251816,12.275894,12.282501,12.287281,12.285974,12.288108,12.291741,12.2986355,12.305426,12.310205,12.313168,12.31645,12.318448,12.318674,12.318414,12.318454,12.318884,12.319309,12.320899,12.322572,12.326242,12.329708,12.334873,12.338937,12.345125,12.350405,12.357927,12.363846,12.369015,12.371159,12.371623,12.37019,12.368968,12.366866,12.365212,12.361755,12.358008,12.353412,12.350598,12.347463,12.345623,12.346502,12.349694,12.3546715,12.360694,12.380015,12.400735,12.433784,12.428203,12.525083,12.187529
10.43956,12.0243225,12.177341,12.166098,12.196129,12.232395,12.258319,12.282185,12.28869,12.293227,12.291683,12.2935095,12.296897,12.303515,12.310085,12.3146105,12.317356,12.320465,12.322332,12.322493,12.322135,12.322048,12.322346,12.322712,12.324243,12.325884,12.329497,12.332909,12.338091,12.342224,12.348423,12.353661,12.361138,12.367013,12.37213,12.374226,12.374622,12.373181,12.372025,12.370081,12.368562,12.365363,12.361865,12.357638,12.355097,12.352357,12.350804,12.352112,12.355623,12.361082,12.367486,12.3872795,12.408466,12.442669,12.438053,12.53637,12.196987
10.459924,12.037063,12.186535,12.173152,12.203124,12.239308,12.2651,12.288722,12.295032,12.299242,12.297421,12.29891,12.302054,12.308399,12.314774,12.3191,12.321694,12.324663,12.326425,12.326541,12.326099,12.325891,12.326032,12.326301,12.327704,12.329267,12.332719,12.335983,12.341032,12.34511,12.35118,12.356292,12.36362,12.369384,12.374411,12.376467,12.376813,12.375409,12.374358,12.372639,12.371333,12.36847,12.365255,12.361435,12.35919,12.356869,12.355604,12.3573,12.361069,12.366954,12.373706,12.39383,12.4153185,12.450472,12.446712,12.545597,12.20551
10.479998,12.0492325,12.195838,12.180542,12.209923,12.245586,12.271187,12.2944145,12.300386,12.304146,12.302013,12.303132,12.306039,12.3121195,12.318322,12.322497,12.324975,12.327804,12.329432,12.329486,12.328932,12.328586,12.328536,12.328666,12.3299055,12.331382,12.33466,12.337766,12.342635,12.346609,12.352511,12.357485,12.364626,12.370254,12.375173,12.377199,12.377529,12.376199,12.375266,12.373792,12.372734,12.370233,12.36729,12.363863,12.361916,12.360015,12.359048,12.361117,12.365117,12.371422,12.378532,12.398989,12.420763,12.456761,12.45381,12.552889,12.212973
10.5045185,12.062688,12.20655,12.189739,12.218509,12.253697,12.2792,12.302044,12.307607,12.310872,12.30842,12.309165,12.31185,12.317701,12.323795,12.327925,12.330401,12.333167,12.33474,12.334803,12.334193,12.333733,12.333476,12.33343,12.334446,12.335794,12.338802,12.341663,12.346221,12.349995,12.355623,12.360394,12.367254,12.372688,12.377473,12.379487,12.379821,12.378612,12.377843,12.37669,12.375973,12.373916,12.371275,12.368269,12.366632,12.365161,12.364488,12.366885,12.371051,12.377735,12.385181,12.405802,12.42766,12.464332,12.462113,12.560496,12.221772
10.523629,12.072187,12.214137,12.196619,12.225217,12.260337,12.285884,12.308573,12.313893,12.316887,12.314267,12.314809,12.317379,12.323138,12.329236,12.333437,12.33602,12.3388405,12.340474,12.340638,12.3400755,12.339582,12.339211,12.339048,12.339901,12.3411455,12.343923,12.346561,12.350845,12.354444,12.359833,12.364434,12.371056,12.376324,12.381004,12.383019,12.383362,12.382251,12.381608,12.38071,12.380264,12.378544,12.376114,12.373384,12.371945,12.370728,12.370217,12.37277,12.376989,12.383866,12.391497,12.412044,12.433762,12.47078,12.469017,12.56648,12.228813
10.551132,12.085419,12.225009,12.207111,12.23588,12.271241,12.296903,12.319446,12.32446,12.327087,12.324219,12.324485,12.3269005,12.332501,12.338557,12.342826,12.345537,12.348425,12.350127,12.350392,12.349864,12.34932,12.34878,12.34844,12.349031,12.350099,12.352529,12.354857,12.358741,12.362072,12.367116,12.371483,12.377797,12.382877,12.387452,12.389495,12.38986,12.388887,12.3884325,12.387893,12.387826,12.38656,12.384409,12.382051,12.380886,12.38002,12.379736,12.382486,12.386763,12.393874,12.401723,12.422198,12.443725,12.48095,12.479518,12.575012,12.239662
10.573355,12.096141,12.233809,12.215764,12.244961,12.280732,12.306495,12.328959,12.333755,12.336096,12.333013,12.333057,12.33535,12.340782,12.346751,12.351017,12.353785,12.356687,12.358399,12.358692,12.358138,12.357539,12.35685,12.35636,12.356725,12.357629,12.359777,12.361879,12.365456,12.368578,12.37336,12.377557,12.383673,12.388645,12.393172,12.395251,12.395641,12.394775,12.394474,12.394209,12.39443,12.393513,12.39157,12.389511,12.3885765,12.388005,12.387907,12.390831,12.3951645,12.40246,12.410479,12.430987,12.452445,12.489688,12.488336,12.582046,12.248926
10.60297,12.110405,12.246529,12.22892,12.2583065,12.294285,12.320116,12.342341,12.346739,12.348573,12.345127,12.344787,12.346856,12.352009,12.357825,12.362058,12.36488,12.367791,12.36951,12.36983,12.369233,12.368547,12.367644,12.366947,12.366997,12.367678,12.36944,12.3712225,12.374355,12.377169,12.3815565,12.385492,12.391285,12.396072,12.400503,12.402622,12.403046,12.402335,12.402246,12.402369,12.402991,12.402552,12.400897,12.399241,12.398624,12.398472,12.39865,12.401845,12.406281,12.41387,12.422144,12.442688,12.464026,12.50133,12.500132,12.590922,12.261384
10.622633,12.119799,12.255588,12.238682,12.267899,12.303755,12.3295765,12.351542,12.355597,12.357007,12.353274,12.352617,12.354504,12.359438,12.365141,12.369341,12.372192,12.375112,12.376834,12.377175,12.376548,12.375799,12.374747,12.373906,12.373741,12.374274,12.375769,12.377325,12.38014,12.382725,12.386819,12.390553,12.39609,12.40072,12.40506,12.4072,12.407649,12.40705,12.40711,12.407501,12.408405,12.408295,12.406832,12.405452,12.405049,12.405193,12.405575,12.408979,12.413509,12.4213295,12.429802,12.4503565,12.471588,12.508976,12.50795,12.596448,12.269737
10.649547,12.133711,12.26998,12.254614,12.283384,12.318881,12.344672,12.366235,12.369771,12.370445,12.366147,12.364885,12.366411,12.370892,12.376302,12.3803,12.383079,12.38594,12.38762,12.387931,12.387189,12.386296,12.38499,12.383938,12.383461,12.383775,12.384889,12.386131,12.388509,12.39078,12.394456,12.397893,12.403043,12.407426,12.411623,12.41378,12.414254,12.413812,12.414078,12.414863,12.416189,12.416575,12.4154005,12.41443,12.414346,12.414926,12.4156065,12.419308,12.423952,12.4320545,12.440762,12.461399,12.482566,12.520059,12.519093,12.603982,12.280735
10.667654,12.143904,12.281322,12.2675,12.295763,12.330841,12.356595,12.377839,12.380981,12.381032,12.376219,12.374419,12.375613,12.379669,12.384778,12.388521,12.391163,12.393936,12.395551,12.395796,12.394923,12.393888,12.392372,12.391167,12.390465,12.390617,12.39146,12.39249,12.394567,12.396623,12.4,12.403211,12.408065,12.412253,12.416329,12.418488,12.4189625,12.418625,12.419029,12.420097,12.421733,12.422488,12.421526,12.4208555,12.421005,12.421901,12.4228,12.426708,12.43142,12.439679,12.448517,12.469232,12.490389,12.527931,12.526876,12.608909,12.287775
10.688948,12.156703,12.296428,12.285061,12.312481,12.346867,12.372573,12.3934,12.3960285,12.395282,12.389823,12.387338,12.388106,12.391622,12.396354,12.399779,12.402251,12.404913,12.406442,12.406599,12.405555,12.404335,12.4025545,12.401158,12.400179,12.400132,12.400648,12.401421,12.403125,12.404905,12.407882,12.410778,12.415209,12.41909,12.422933,12.425007,12.4254,12.42511,12.425624,12.426987,12.42897,12.430154,12.429448,12.429146,12.429587,12.430869,12.432029,12.436138,12.440874,12.449227,12.458113,12.47861,12.4994335,12.536824,12.535567,12.613682,12.295288
10.701674,12.165566,12.307953,12.298818,12.325291,12.358936,12.384641,12.405195,12.407468,12.406166,12.4002495,12.397268,12.397724,12.400842,12.405289,12.408467,12.41079,12.413358,12.414805,12.414879,12.413695,12.412327,12.410352,12.408824,12.407653,12.407467,12.407762,12.408364,12.409817,12.411399,12.414078,12.416723,12.420812,12.424427,12.428038,12.429985,12.430255,12.429931,12.430469,12.431979,12.43416,12.435602,12.435054,12.434981,12.435602,12.437116,12.438426,12.442597,12.447268,12.455558,12.464352,12.4843855,12.504664,12.541691,12.540167,12.615287,12.29899
10.714811,12.1763525,12.322681,12.316273,12.340936,12.373306,12.399172,12.419542,12.421462,12.41958,12.413161,12.409619,12.409697,12.41235,12.416457,12.419319,12.4214325,12.423852,12.425167,12.425122,12.423735,12.422153,12.4199095,12.418213,12.416796,12.416431,12.416435,12.416806,12.417926,12.419258,12.421493,12.423744,12.42737,12.430684,12.434069,12.435928,12.436084,12.435738,12.436311,12.437992,12.440395,12.442106,12.441711,12.441842,12.4426155,12.444311,12.445739,12.449878,12.454387,12.462496,12.471094,12.490336,12.509723,12.546034,12.544183,12.616067,12.303125
10.723909,12.185091,12.335531,12.331683,12.354377,12.385404,12.411503,12.431829,12.43353,12.431259,12.424477,12.420504,12.420262,12.422518,12.426312,12.428869,12.430761,12.433012,12.434178,12.434004,12.432423,12.43065,12.428168,12.426331,12.424708,12.424198,12.423957,12.424133,12.424968,12.426087,12.42804,12.430067,12.43334,12.436344,12.439435,12.441114,12.441138,12.440758,12.441325,12.443089,12.445611,12.447465,12.447146,12.447359,12.448189,12.449931,12.451379,12.455353,12.459609,12.467371,12.475625,12.493906,12.512262,12.54758,12.545223,12.614043,12.3046
10.734581,12.194761,12.349836,12.34901,12.369637,12.399281,12.425675,12.445973,12.447418,12.444708,12.437522,12.433062,12.4324465,12.434212,12.437602,12.43977,12.441377,12.443413,12.444393,12.44406,12.44226,12.440284,12.437547,12.435548,12.433678,12.432982,12.43242,12.432337,12.432661,12.4333515,12.435233,12.437453,12.440457,12.442983,12.44555,12.446895,12.446894,12.446632,12.447165,12.448941,12.45157,12.45356,12.453317,12.453624,12.454533,12.456332,12.457799,12.46156,12.465493,12.472753,12.480504,12.497682,12.514889,12.548931,12.545705,12.610214,12.304668
10.748859,12.204217,12.363801,12.366475,12.385471,12.413893,12.440335,12.460487,12.461729,12.458654,12.451133,12.446225,12.445233,12.446483,12.449432,12.451186,12.452491,12.454289,12.455068,12.454567,12.452567,12.450424,12.447487,12.445365,12.44333,12.44252,12.441802,12.441616,12.441878,12.442594,12.444697,12.447129,12.449979,12.452008,12.453753,12.454284,12.453732,12.453192,12.453597,12.4553585,12.457989,12.459993,12.45975,12.460055,12.460974,12.462717,12.464114,12.467547,12.471081,12.477662,12.4847355,12.500643,12.516559,12.549036,12.544538,12.603099,12.301931
10.765191,12.212772,12.375915,12.381903,12.399919,12.427354,12.453475,12.473294,12.474404,12.471065,12.463308,12.458046,12.45673,12.457537,12.460115,12.461544,12.462626,12.464243,12.46488,12.464276,12.462144,12.459898,12.456716,12.454285,12.4520645,12.451294,12.450753,12.450766,12.45187,12.453524,12.456076,12.458315,12.46107,12.46271,12.463287,12.462417,12.460713,12.459475,12.45969,12.461471,12.464022,12.465934,12.465631,12.46584,12.46669,12.468272,12.469521,12.472579,12.475721,12.481629,12.48804,12.502709,12.517368,12.548355,12.542551,12.594724,12.297771
10.790255,12.222476,12.389646,12.400282,12.417754,12.444355,12.469915,12.489248,12.49022,12.486588,12.478569,12.47288,12.471161,12.4714365,12.47355,12.474516,12.475236,12.476559,12.476949,12.476128,12.473818,12.471425,12.468392,12.466368,12.464455,12.463658,12.463217,12.463382,12.465202,12.467658,12.470471,12.472403,12.475018,12.476375,12.47623,12.474135,12.470507,12.467696,12.467646,12.469546,12.471956,12.473703,12.473298,12.473363,12.474116,12.475472,12.476515,12.47913,12.481838,12.486944,12.492543,12.505762,12.518946,12.548128,12.540641,12.584265,12.2926655
10.813189,12.230594,12.401043,12.415772,12.433016,12.459055,12.484094,12.502987,12.503838,12.499935,12.491659,12.485418,12.483211,12.48335,12.485398,12.485698,12.48565,12.486583,12.486701,12.485587,12.483057,12.480374,12.478007,12.477483,12.476566,12.475572,12.474859,12.474827,12.476423,12.478747,12.481345,12.483099,12.4854765,12.486664,12.486716,12.4843,12.478674,12.474006,12.473935,12.476258,12.47859,12.480217,12.479764,12.479762,12.480472,12.481704,12.482618,12.48495,12.487377,12.491911,12.4969,12.508999,12.521023,12.548826,12.539982,12.5763445,12.289028
10.84514,12.238884,12.414059,12.434989,12.452078,12.477809,12.502648,12.521275,12.5219345,12.517632,12.509013,12.502835,12.500664,12.499342,12.499816,12.500046,12.500469,12.501165,12.50085,12.4993725,12.496685,12.494101,12.49214,12.492127,12.491482,12.490321,12.489527,12.489543,12.49093,12.492932,12.495247,12.496887,12.499189,12.500487,12.501223,12.498995,12.491967,12.485512,12.4846735,12.4866085,12.488748,12.490231,12.489654,12.4895115,12.490152,12.4911785,12.491883,12.493778,12.49579,12.49947,12.503576,12.514315,12.524995,12.550873,12.540237,12.567785,12.286858
10.868183,12.24296,12.421961,12.44786,12.464782,12.490533,12.51565,12.534368,12.534883,12.530062,12.520979,12.515822,12.51473,12.511223,12.509029,12.509899,12.512021,12.512829,12.51218,12.510513,12.507863,12.50581,12.503588,12.5023775,12.500839,12.499695,12.4991865,12.499609,12.50114,12.502986,12.505204,12.506848,12.509337,12.510992,12.512455,12.510679,12.503413,12.496066,12.494097,12.495056,12.496986,12.498379,12.497668,12.497391,12.49798,12.498836,12.49936,12.500886,12.502547,12.505506,12.508897,12.51873,12.52858,12.552947,12.540965,12.562664,12.286851
10.9039955,12.249505,12.433422,12.466406,12.483507,12.509533,12.53495,12.553645,12.553844,12.549611,12.54136,12.535596,12.532828,12.526532,12.522483,12.524495,12.528594,12.529346,12.527946,12.525752,12.522885,12.52129,12.518923,12.516765,12.514452,12.513232,12.512813,12.51345,12.514995,12.516683,12.518792,12.520423,12.522999,12.52486,12.526496,12.525243,12.519759,12.513108,12.509058,12.50771,12.509386,12.5107565,12.50982,12.509194,12.509512,12.509969,12.510219,12.511209,12.512384,12.514355,12.5167675,12.525278,12.533915,12.556195,12.542618,12.557214,12.289133
10.931966,12.255083,12.441984,12.4798975,12.497418,12.5238,12.549341,12.567884,12.56777,12.56498,12.558488,12.550717,12.54428,12.536213,12.532329,12.535447,12.540714,12.541218,12.538957,12.536095,12.532809,12.531308,12.529066,12.526892,12.524477,12.523128,12.522526,12.523029,12.524434,12.526058,12.528101,12.529701,12.532193,12.533958,12.535059,12.5340805,12.531441,12.52671,12.520688,12.516939,12.518545,12.52006,12.518948,12.517911,12.517802,12.517836,12.517932,12.518589,12.519453,12.520764,12.522507,12.530065,12.537822,12.558669,12.544168,12.554536,12.292194
10.966562,12.259631,12.452731,12.499115,12.5172,12.543889,12.569384,12.587763,12.587448,12.585459,12.57988,12.570128,12.560673,12.551681,12.547872,12.549255,12.553106,12.553885,12.552722,12.550727,12.547986,12.5463915,12.543857,12.541501,12.538777,12.537175,12.536279,12.536621,12.53785,12.539397,12.541347,12.542902,12.545348,12.547079,12.547872,12.547044,12.545807,12.542513,12.537031,12.532666,12.532771,12.532882,12.531417,12.530729,12.531552,12.531502,12.5305,12.529991,12.530222,12.53047,12.53127,12.537154,12.543318,12.562058,12.54637,12.550082,12.296675
10.987967,12.260654,12.4595175,12.512976,12.5314665,12.558254,12.583562,12.601869,12.601587,12.59933,12.5933075,12.582658,12.57246,12.5639305,12.560183,12.558219,12.559043,12.560416,12.561515,12.561288,12.559651,12.557813,12.554769,12.552213,12.549189,12.547347,12.546192,12.546415,12.547521,12.549021,12.550902,12.55242,12.554869,12.556629,12.557454,12.556556,12.554616,12.551558,12.548663,12.545729,12.543925,12.542041,12.540257,12.540431,12.542942,12.543178,12.540809,12.538932,12.538486,12.537846,12.537998,12.542452,12.547219,12.564412,12.547996,12.546581,12.300159
11.018582,12.263582,12.470049,12.532917,12.551883,12.57887,12.604101,12.622537,12.622427,12.619037,12.611403,12.599888,12.589748,12.581543,12.577892,12.57454,12.574065,12.575682,12.57769,12.578144,12.576833,12.574758,12.571269,12.568445,12.56499,12.562797,12.561262,12.561297,12.562203,12.563616,12.565357,12.566782,12.569186,12.57093,12.571658,12.570595,12.568089,12.565227,12.564112,12.562647,12.560551,12.5580015,12.555693,12.556621,12.5611105,12.561842,12.558194,12.553443,12.550165,12.547465,12.547122,12.549592,12.552345,12.567391,12.550208,12.54234,12.306446
11.043288,12.266807,12.479267,12.549485,12.568738,12.595906,12.621196,12.639921,12.640087,12.635213,12.625522,12.613726,12.604635,12.596732,12.593198,12.5905075,12.59053,12.592026,12.593548,12.593583,12.591864,12.589627,12.585906,12.582866,12.579042,12.576534,12.574645,12.574498,12.575198,12.5765085,12.57808,12.579379,12.5817,12.583395,12.583978,12.582685,12.57971,12.576716,12.576014,12.575521,12.574541,12.572767,12.570263,12.571426,12.576764,12.577565,12.573228,12.565996,12.559921,12.555407,12.554834,12.555542,12.556441,12.569933,12.552342,12.539044,12.311123
11.078897,12.272562,12.492678,12.572477,12.592093,12.619504,12.644871,12.664276,12.6652155,12.658879,12.646749,12.634497,12.626471,12.619034,12.615682,12.613168,12.6132145,12.614654,12.615998,12.615865,12.613875,12.611418,12.607327,12.603989,12.59963,12.596658,12.594209,12.593744,12.5940695,12.595171,12.59641,12.597468,12.599607,12.601199,12.601553,12.599958,12.596532,12.593246,12.592464,12.592428,12.5922165,12.59154,12.590155,12.590958,12.5945215,12.593329,12.588006,12.579919,12.573639,12.568389,12.566826,12.564505,12.562284,12.574147,12.555939,12.53252,12.311451
11.11234,12.278214,12.505734,12.59453,12.614269,12.641875,12.667531,12.687235,12.688263,12.680978,12.667602,12.655366,12.648236,12.641294,12.638144,12.635786,12.635819,12.637189,12.638364,12.638079,12.635849,12.633192,12.628771,12.625164,12.62031,12.616894,12.613896,12.613106,12.613032,12.6139,12.61477,12.615554,12.617478,12.618952,12.619055,12.61715,12.613381,12.609677,12.608305,12.608069,12.6081915,12.608412,12.608425,12.608419,12.609046,12.605228,12.599157,12.591775,12.587247,12.582492,12.579944,12.574677,12.569318,12.580261,12.561515,12.526957,12.308642
11.145073,12.28153,12.518915,12.61862,12.637984,12.665549,12.691779,12.711078,12.710998,12.702959,12.689524,12.677779,12.671438,12.665044,12.662123,12.659925,12.659928,12.661218,12.662202,12.661742,12.659242,12.656358,12.65158,12.647698,12.64233,12.638456,12.634903,12.633791,12.63332,12.633949,12.634435,12.634929,12.636633,12.637978,12.637801,12.63554,12.631342,12.627223,12.62556,12.625111,12.625109,12.625298,12.625575,12.624864,12.624064,12.618764,12.611987,12.605206,12.602199,12.59806,12.594844,12.586728,12.578204,12.588783,12.569658,12.522405,12.305201
11.182541,12.287031,12.534201,12.64509,12.66425,12.692173,12.719476,12.736775,12.73299,12.724776,12.714058,12.703835,12.697891,12.692052,12.689367,12.687345,12.687312,12.688493,12.689262,12.688622,12.685871,12.682794,12.67771,12.6735935,12.667781,12.66351,12.65948,12.658095,12.65728,12.6577015,12.657843,12.658076,12.659595,12.660831,12.660384,12.657762,12.65312,12.648565,12.64666,12.645851,12.645403,12.645028,12.645012,12.64352,12.641804,12.635633,12.628514,12.622213,12.620224,12.617097,12.614146,12.604113,12.592906,12.602951,12.583049,12.524492,12.307807
11.222159,12.295863,12.551571,12.672215,12.690741,12.71907,12.748034,12.762147,12.752554,12.744673,12.738949,12.731007,12.725022,12.719636,12.717139,12.715268,12.715201,12.716253,12.716804,12.715996,12.713048,12.709839,12.704543,12.700252,12.694115,12.68955,12.685176,12.6835985,12.682548,12.68283,12.682733,12.682783,12.68419,12.685363,12.684699,12.681752,12.6767,12.671711,12.66951,12.668354,12.66757,12.666802,12.66667,12.664354,12.661427,12.654329,12.6471405,12.640581,12.638395,12.637271,12.63673,12.624863,12.609772,12.618877,12.598731,12.531809,12.316258
11.279286,12.311026,12.571705,12.702373,12.723798,12.754752,12.784786,12.794854,12.778711,12.771082,12.770872,12.765494,12.759549,12.754748,12.752521,12.750889,12.750828,12.751749,12.752059,12.751083,12.747942,12.744607,12.739091,12.734607,12.728115,12.723235,12.71848,12.716683,12.715347,12.715446,12.715063,12.714903,12.716181,12.71729,12.716408,12.7131405,12.707682,12.702288,12.699827,12.698389,12.697327,12.696263,12.696128,12.692984,12.688672,12.680762,12.673872,12.667368,12.665024,12.663161,12.661946,12.651587,12.638099,12.644367,12.620175,12.5477,12.337815
11.330939,12.326269,12.585319,12.721683,12.748724,12.783881,12.814144,12.821819,12.802029,12.79411,12.796441,12.792477,12.786927,12.782708,12.780791,12.779427,12.779424,12.780288,12.7804365,12.779347,12.776051,12.772598,12.766878,12.7622175,12.755404,12.75024,12.745131,12.743122,12.741493,12.741397,12.740726,12.740358,12.7414875,12.742528,12.741479,12.738007,12.732295,12.72668,12.724116,12.7226,12.721437,12.720356,12.72046,12.716838,12.711416,12.702921,12.696357,12.690609,12.688938,12.682725,12.676163,12.671354,12.666677,12.668261,12.635237,12.5602255,12.358543
11.401212,12.342476,12.603739,12.752421,12.78824,12.828386,12.8567095,12.86052,12.83695,12.82855,12.833428,12.830976,12.825965,12.82234,12.820665,12.819538,12.819563,12.820321,12.820267,12.819047,12.8156,12.812061,12.806145,12.80129,12.794102,12.788607,12.78308,12.780825,12.778845,12.778506,12.777492,12.776887,12.777858,12.7788315,12.777591,12.773872,12.767862,12.761988,12.7593,12.757699,12.756472,12.755303,12.755438,12.751253,12.744806,12.736089,12.730295,12.72553,12.724403,12.713298,12.700597,12.698947,12.701503,12.701107,12.664119,12.589514,12.399594
11.450071,12.347832,12.616503,12.77916,12.821314,12.864713,12.891284,12.891562,12.86455,12.85529,12.861947,12.860612,12.856084,12.852703,12.850922,12.84976,12.849688,12.850311,12.850108,12.848789,12.84527,12.8417225,12.8357315,12.830771,12.823366,12.817671,12.811905,12.809511,12.807327,12.806841,12.805619,12.804875,12.80576,12.806698,12.805312,12.801393,12.795143,12.789047,12.7862215,12.784508,12.783205,12.781892,12.781902,12.777327,12.770323,12.761723,12.7567,12.752573,12.751559,12.738221,12.722462,12.718402,12.720838,12.723152,12.690952,12.618685,12.436748
