12.811703,18.938076,23.828875,24.394928,23.837345,23.97086,24.059238,24.065264,24.08172,24.107632,24.136862,24.151903,24.176464,24.195326,24.219263,24.23532,24.252695,24.263927,24.277649,24.28868,24.299313,24.307829,24.314993,24.31892,24.319172,24.317293,24.31637,24.310879,24.304533,24.291151,24.278786,24.262764,24.252342,24.236431,24.223978,24.207062,24.193867,24.179028,24.167364,24.154144,24.142508,24.132435,24.12287,24.115387,24.105982,24.097681,24.087786,24.081516,24.073467,24.068,24.061914,24.058836,24.057386,24.058521,24.059122,24.059229,24.059078,24.057665,24.054504,24.048143,24.038593,24.02605,24.014982,24.00174,23.991068,23.977314,23.966557,23.953869,23.946726,23.934252,23.924011,23.906483,23.892027,23.872467,23.858,23.837297,23.819948,23.79838,23.779549,23.759142,23.739592,23.720324,23.70041,23.684345,23.66672,23.65309,23.639944,23.633736,23.626448,23.621868,23.615719,23.611778,23.604734,23.597923,23.580519,23.559868,23.528774,23.497002,23.463976,23.420662,23.364237,23.26675,23.138065,22.996183,22.920729,22.84727,23.036585,22.269855,21.277937,17.148495,12.181621,8.265385,7.5773935,6.961008,7.121205
13.48208,19.237879,23.73061,24.325586,23.867466,23.9999,24.064331,24.039097,24.043615,24.086988,24.130026,24.147585,24.171423,24.185848,24.20207,24.210672,24.22077,24.227594,24.236885,24.245155,24.253195,24.25989,24.265692,24.268522,24.267982,24.265362,24.264065,24.257845,24.250801,24.236254,24.222961,24.205593,24.194166,24.17584,24.16116,24.143106,24.13015,24.115322,24.10368,24.090239,24.078257,24.067898,24.05798,24.050196,24.040281,24.031458,24.020874,24.014088,24.005617,24.000097,23.99366,23.99015,23.987888,23.988283,23.987967,23.987404,23.986277,23.98412,23.980314,23.973776,23.96441,23.952322,23.941614,23.928614,23.918009,23.904097,23.893166,23.879772,23.871721,23.858458,23.847998,23.830688,23.816778,23.797829,23.78376,23.763462,23.746344,23.725088,23.706566,23.686659,23.667528,23.64843,23.628578,23.612614,23.59506,23.581564,23.568111,23.561275,23.553139,23.547983,23.541233,23.536982,23.531416,23.527567,23.52026,23.511616,23.496626,23.474258,23.437433,23.3836,23.31427,23.22814,23.164919,23.045525,22.881285,22.76517,22.96796,22.483616,21.942583,17.973917,12.765691,8.605743,7.791195,7.0912433,7.2567534
13.87772,19.45641,23.748167,24.346743,23.912113,24.008217,24.052723,24.046646,24.059658,24.09231,24.121536,24.130129,24.14397,24.153196,24.162823,24.16738,24.172287,24.175615,24.181742,24.18813,24.194284,24.1994,24.20375,24.205145,24.203548,24.19986,24.197956,24.190786,24.182882,24.167439,24.153746,24.135803,24.123983,24.104534,24.089197,24.074171,24.065996,24.05548,24.047014,24.036999,24.027687,24.01936,24.011208,24.004887,23.996923,23.98991,23.981483,23.976051,23.969284,23.964937,23.95952,23.956291,23.95342,23.952606,23.95073,23.94884,23.94579,23.942091,23.936777,23.929745,23.920868,23.91007,23.90032,23.888784,23.879637,23.867645,23.858223,23.846193,23.838531,23.826262,23.81682,23.801146,23.788519,23.770958,23.75755,23.737566,23.720242,23.698923,23.680408,23.660746,23.641659,23.62213,23.601503,23.584883,23.566595,23.552856,23.53812,23.529703,23.518444,23.510586,23.499456,23.491816,23.478804,23.468454,23.459915,23.456259,23.449564,23.437906,23.417044,23.377043,23.316366,23.232372,23.166832,23.04489,22.878517,22.768646,22.952217,22.608702,22.333826,18.445887,13.0726795,8.772374,7.9090886,7.1752925,7.346548
14.237603,19.662443,23.774408,24.356462,23.920393,23.97237,24.000729,24.027206,24.055922,24.07303,24.08463,24.083542,24.086077,24.089315,24.093184,24.095993,24.100111,24.103937,24.108927,24.11329,24.117035,24.119596,24.121984,24.12164,24.118776,24.114302,24.112242,24.105522,24.098263,24.084171,24.071701,24.055817,24.0457,24.028713,24.015345,24.003412,23.997875,23.990118,23.98362,23.97566,23.967888,23.960726,23.953615,23.948174,23.941544,23.935879,23.929094,23.924706,23.919205,23.915682,23.911001,23.907976,23.904589,23.902784,23.899696,23.896862,23.892628,23.88811,23.881973,23.87482,23.86658,23.856993,23.848232,23.837833,23.829557,23.818602,23.810026,23.798529,23.790754,23.778484,23.769157,23.754005,23.741995,23.725048,23.711916,23.69202,23.674599,23.653412,23.635107,23.615683,23.596664,23.576927,23.555967,23.539165,23.520685,23.506966,23.491592,23.482256,23.46919,23.459764,23.446232,23.436794,23.420519,23.407465,23.396685,23.392687,23.385225,23.376755,23.369162,23.34636,23.3031,23.225744,23.144487,23.019258,22.881224,22.79142,22.933126,22.707949,22.693727,18.88905,13.359181,8.937647,8.044361,7.2886477,7.4653563
14.362784,19.745861,23.799868,24.35038,23.885777,23.912535,23.938538,23.990742,24.033125,24.040236,24.042107,24.036997,24.033882,24.033627,24.035675,24.03986,24.048183,24.056505,24.063118,24.066444,24.068586,24.069056,24.070097,24.068758,24.065187,24.060757,24.059162,24.054195,24.048838,24.037737,24.027493,24.015276,24.008104,23.995932,23.986103,23.975285,23.968271,23.959736,23.952559,23.943743,23.935188,23.927418,23.919815,23.91398,23.907066,23.901299,23.894453,23.890036,23.884457,23.880835,23.876076,23.873037,23.869534,23.867605,23.864439,23.861675,23.857803,23.853765,23.848043,23.841238,23.833364,23.82411,23.81573,23.80535,23.796698,23.785072,23.776043,23.763763,23.755354,23.741924,23.731592,23.71536,23.702835,23.685238,23.671776,23.651663,23.63431,23.613375,23.595375,23.576036,23.55708,23.537525,23.516945,23.500605,23.482668,23.469261,23.454378,23.445435,23.433182,23.424473,23.412327,23.404093,23.391413,23.38173,23.369349,23.359648,23.3422,23.326708,23.321043,23.308168,23.280561,23.210876,23.111193,22.984276,22.885864,22.818281,22.923115,22.732895,22.831444,19.064886,13.469181,9.009372,8.120766,7.366226,7.544524
14.661059,19.915653,23.805958,24.313383,23.8376,23.857437,23.885002,23.944044,23.98562,23.983564,23.974945,23.964067,23.957153,23.957565,23.962002,23.96951,23.98064,23.99019,23.997267,23.999702,24.000437,23.999065,23.998678,23.996025,23.99154,23.9865,23.984636,23.98018,23.975742,23.966208,23.957182,23.947018,23.941536,23.932283,23.924717,23.914818,23.907175,23.898441,23.891066,23.88198,23.87315,23.865112,23.857372,23.851532,23.84488,23.839468,23.833143,23.829105,23.823957,23.82058,23.816063,23.813124,23.80962,23.807598,23.804394,23.80171,23.798182,23.794643,23.789501,23.783285,23.776037,23.767414,23.759665,23.749687,23.74108,23.729267,23.720053,23.707363,23.698599,23.68444,23.67343,23.656534,23.643747,23.625944,23.612509,23.592613,23.57564,23.555298,23.537855,23.518913,23.500265,23.481056,23.460972,23.445196,23.427889,23.41484,23.400469,23.391937,23.3804,23.372263,23.361168,23.353807,23.34389,23.337029,23.325647,23.314903,23.296717,23.280231,23.270252,23.257269,23.24108,23.184933,23.086523,22.96851,22.895811,22.835377,22.895939,22.761532,23.013031,19.321257,13.671535,9.161555,8.248765,7.4809704,7.6632657
14.949715,20.06844,23.789173,24.265875,23.80083,23.835909,23.868635,23.912594,23.94004,23.934902,23.921432,23.906883,23.900425,23.905113,23.914648,23.9255,23.936779,23.944056,23.950415,23.952679,23.953037,23.951128,23.950066,23.946577,23.941526,23.935644,23.932987,23.927662,23.92277,23.912666,23.903292,23.892605,23.886753,23.877132,23.86946,23.8597,23.852392,23.843954,23.836828,23.828053,23.819487,23.811579,23.804062,23.798538,23.792444,23.78756,23.781942,23.778404,23.773872,23.770885,23.766747,23.763958,23.7606,23.758614,23.755499,23.75291,23.749609,23.746376,23.7417,23.736008,23.729263,23.721151,23.713882,23.704386,23.696127,23.684599,23.675493,23.662914,23.654232,23.640112,23.629063,23.612194,23.599478,23.581934,23.568825,23.549414,23.5329,23.513134,23.496176,23.47768,23.45939,23.440502,23.420782,23.405388,23.388481,23.37564,23.36158,23.353317,23.34215,23.334244,23.32348,23.316343,23.307201,23.301367,23.292866,23.285727,23.275352,23.263556,23.245472,23.222834,23.207384,23.162443,23.082794,22.978743,22.905184,22.833855,22.868044,22.77168,23.117119,19.49429,13.846371,9.309084,8.3536415,7.564897,7.7520857
15.430362,20.326029,23.766441,24.201763,23.756218,23.802486,23.83967,23.87222,23.887068,23.8765,23.858793,23.843792,23.838232,23.844938,23.856066,23.867416,23.878298,23.884579,23.890562,23.892612,23.892452,23.889734,23.88778,23.88326,23.87753,23.87077,23.867317,23.8613,23.85618,23.846006,23.836744,23.826168,23.820381,23.81115,23.803957,23.79476,23.787874,23.779917,23.773193,23.764935,23.756844,23.749264,23.742146,23.737051,23.7316,23.727274,23.722445,23.71951,23.715744,23.71325,23.709652,23.707123,23.704079,23.70226,23.699324,23.69685,23.69382,23.690924,23.686728,23.681545,23.675308,23.667717,23.660933,23.651882,23.643894,23.632566,23.623543,23.61103,23.602392,23.588259,23.577145,23.560305,23.547695,23.530413,23.517593,23.498573,23.482407,23.463125,23.446568,23.42838,23.410332,23.391682,23.37234,23.357412,23.341038,23.328484,23.314854,23.306973,23.296316,23.288733,23.278448,23.271639,23.263624,23.259144,23.253155,23.248726,23.243961,23.235994,23.214733,23.18767,23.172258,23.135077,23.070972,22.980742,22.91078,22.832535,22.838202,22.783709,23.223722,19.738335,14.196433,9.626386,8.523859,7.6692653,7.878576
15.830526,20.540361,23.746824,24.152508,23.725904,23.778044,23.817669,23.843868,23.851652,23.83772,23.819834,23.80802,23.803968,23.810047,23.81943,23.828823,23.838768,23.84516,23.851112,23.853146,23.852772,23.849625,23.847147,23.842024,23.835915,23.82867,23.824778,23.818413,23.81322,23.80318,23.794186,23.783905,23.778286,23.7695,23.762775,23.754162,23.747742,23.740332,23.734087,23.726427,23.718908,23.711807,23.705162,23.700478,23.69551,23.691544,23.68723,23.68472,23.681513,23.679396,23.676247,23.673964,23.671259,23.669657,23.666922,23.664537,23.661673,23.658949,23.654993,23.65005,23.644049,23.636686,23.630123,23.62126,23.613352,23.602095,23.593122,23.580671,23.572067,23.557978,23.54688,23.530134,23.517641,23.500515,23.487823,23.46893,23.45284,23.433697,23.417236,23.399069,23.381031,23.362434,23.343279,23.328632,23.312601,23.30023,23.2869,23.279306,23.26901,23.261656,23.251678,23.245068,23.23771,23.233984,23.229174,23.225903,23.223125,23.217022,23.197947,23.171587,23.152859,23.115356,23.059404,22.977238,22.90867,22.826786,22.817608,22.78426,23.262138,19.919315,14.5537,9.9675,8.67737,7.7391706,7.975759
16.17564,20.725885,23.731968,24.10534,23.690044,23.749557,23.792389,23.810411,23.811077,23.795784,23.780396,23.77359,23.771296,23.77544,23.783316,23.791817,23.801138,23.807436,23.813313,23.815308,23.814747,23.811207,23.808218,23.802517,23.796051,23.788425,23.784218,23.777676,23.77252,23.762732,23.754038,23.744192,23.738905,23.730673,23.724443,23.716597,23.710896,23.704428,23.699062,23.692373,23.685757,23.679483,23.673626,23.66954,23.665203,23.661684,23.657963,23.655901,23.653309,23.651632,23.648981,23.64696,23.644615,23.64324,23.640703,23.638384,23.635637,23.633026,23.629255,23.624498,23.618658,23.611446,23.605057,23.596312,23.588411,23.577156,23.568224,23.555803,23.547216,23.533115,23.521986,23.505255,23.492815,23.475683,23.462934,23.444016,23.427923,23.40878,23.392303,23.374039,23.355946,23.337402,23.318422,23.303972,23.288193,23.275974,23.262941,23.255648,23.245747,23.238636,23.22901,23.222637,23.215895,23.21281,23.208935,23.206541,23.20531,23.200756,23.184818,23.158558,23.130508,23.087795,23.042551,22.970522,22.900322,22.811054,22.784674,22.77189,23.282352,20.131542,15.02337,10.425589,8.878603,7.818967,8.083872
16.33656,20.810966,23.723816,24.076721,23.66243,23.726185,23.77049,23.782207,23.779755,23.766966,23.755919,23.752855,23.75139,23.753258,23.7599,23.768192,23.777315,23.7837,23.789715,23.791891,23.791464,23.787949,23.78484,23.77902,23.772543,23.76495,23.76074,23.754328,23.749338,23.739902,23.731527,23.722172,23.717258,23.709566,23.703789,23.696716,23.691793,23.686346,23.681948,23.676311,23.670673,23.665327,23.660324,23.656864,23.653131,23.650026,23.646791,23.64507,23.64295,23.64162,23.639345,23.6375,23.63541,23.63419,23.631771,23.629465,23.62672,23.624092,23.620358,23.61565,23.609814,23.602598,23.596226,23.587461,23.579487,23.56818,23.559261,23.546858,23.538269,23.524185,23.51307,23.496378,23.483967,23.466738,23.453835,23.434782,23.418602,23.399303,23.382668,23.364187,23.345955,23.32741,23.308487,23.294043,23.27828,23.266071,23.253145,23.246012,23.236313,23.229313,23.219847,23.21358,23.20705,23.204142,23.200342,23.197918,23.196579,23.192293,23.17952,23.153692,23.115927,23.065742,23.027178,22.960686,22.886044,22.788301,22.749254,22.7447,23.261066,20.288769,15.446484,10.849635,9.056012,7.8775263,8.166096
16.453053,20.867052,23.70917,24.045103,23.630226,23.696653,23.740788,23.745535,23.741823,23.735363,23.728054,23.724049,23.721575,23.722569,23.72859,23.736803,23.745968,23.75266,23.759167,23.761889,23.761934,23.75875,23.755785,23.750122,23.74391,23.73654,23.73235,23.726068,23.721256,23.71225,23.704294,23.695469,23.690899,23.683905,23.678795,23.672691,23.668629,23.664259,23.660845,23.656376,23.651846,23.647463,23.64338,23.640648,23.637688,23.635143,23.63256,23.631273,23.629723,23.62879,23.626904,23.625208,23.623318,23.62221,23.619864,23.617538,23.61476,23.612106,23.608438,23.603834,23.598057,23.590874,23.58452,23.575771,23.567804,23.556524,23.547636,23.535295,23.52676,23.512821,23.501873,23.485374,23.473078,23.45591,23.44298,23.423952,23.407787,23.388401,23.371622,23.35296,23.3346,23.316061,23.297163,23.282673,23.266823,23.254522,23.241573,23.234512,23.22489,23.217924,23.208473,23.202194,23.195787,23.193037,23.189148,23.186485,23.184858,23.180555,23.16927,23.14363,23.101048,23.046991,23.01202,22.946611,22.867344,22.757515,22.697472,22.699533,23.228872,20.445127,15.875865,11.282156,9.23808,7.941883,8.257627
16.514275,20.893497,23.699207,24.024189,23.605738,23.67026,23.71162,23.71194,23.708788,23.708332,23.703253,23.696447,23.692366,23.693329,23.699263,23.707624,23.71711,23.724281,23.731478,23.734957,23.735777,23.733318,23.73086,23.725788,23.720182,23.713444,23.70958,23.703758,23.699278,23.69091,23.683517,23.675388,23.671247,23.66505,23.660666,23.655584,23.652403,23.649076,23.646603,23.643278,23.639845,23.63644,23.63329,23.63129,23.62911,23.62714,23.62521,23.624338,23.623295,23.622686,23.621122,23.619543,23.61779,23.616734,23.614393,23.612015,23.609144,23.606417,23.602743,23.598171,23.592422,23.585238,23.57884,23.570024,23.562017,23.550705,23.541811,23.529476,23.520918,23.507097,23.496338,23.48007,23.467913,23.45083,23.437887,23.418907,23.402763,23.383287,23.366339,23.347462,23.328938,23.310392,23.291487,23.27689,23.260859,23.248384,23.235283,23.228188,23.218481,23.211422,23.201794,23.195356,23.18877,23.185894,23.181448,23.178095,23.175453,23.17039,23.1589,23.133224,23.089987,23.035128,23.000746,22.933064,22.848562,22.730698,22.660006,22.663057,23.184166,20.567211,16.26116,11.67681,9.400773,7.997908,8.341359
16.58667,20.932013,23.700779,24.016024,23.593542,23.652987,23.6905,23.689594,23.686373,23.68693,23.682135,23.67474,23.670244,23.671125,23.677044,23.685547,23.69537,23.702995,23.710743,23.714844,23.716404,23.714714,23.712849,23.708477,23.703505,23.697573,23.694294,23.68921,23.685202,23.677616,23.67086,23.66356,23.659964,23.654554,23.650778,23.64662,23.644243,23.641872,23.640245,23.63791,23.635447,23.632973,23.6307,23.62932,23.627764,23.626257,23.624825,23.624271,23.623577,23.623158,23.621807,23.620338,23.618683,23.617643,23.615261,23.612797,23.609821,23.607,23.603218,23.598572,23.592798,23.585577,23.57909,23.57011,23.56193,23.550442,23.54148,23.529003,23.520287,23.506384,23.495667,23.479492,23.467428,23.450325,23.437277,23.418222,23.402016,23.382385,23.365227,23.34606,23.327309,23.308714,23.289793,23.275112,23.25894,23.24632,23.233088,23.22596,23.216156,23.208982,23.199148,23.192541,23.185644,23.182463,23.17736,23.173283,23.169506,23.163488,23.151194,23.125345,23.08258,23.028315,22.994629,22.925472,22.835392,22.71792,22.656105,22.658863,23.14751,20.663473,16.596258,12.022064,9.538811,8.0422,8.412619
16.708586,20.9963,23.700981,24.006071,23.583157,23.635143,23.667498,23.666769,23.66343,23.66311,23.657598,23.650063,23.645418,23.64629,23.652237,23.660858,23.67101,23.679083,23.687355,23.692097,23.694489,23.69374,23.692633,23.689177,23.685017,23.680128,23.67763,23.6735,23.670069,23.663403,23.657366,23.651007,23.648014,23.643435,23.640253,23.636988,23.635368,23.63388,23.633013,23.631573,23.630007,23.62843,23.627016,23.626247,23.625324,23.624306,23.623438,23.623247,23.622963,23.622772,23.621717,23.620432,23.618952,23.617971,23.615622,23.613127,23.6101,23.607214,23.60334,23.598627,23.592861,23.585629,23.579063,23.569921,23.56156,23.549906,23.540894,23.528292,23.519402,23.505426,23.494778,23.478752,23.466833,23.44977,23.436659,23.41762,23.40145,23.38178,23.364511,23.34514,23.326248,23.307724,23.28889,23.27417,23.257858,23.245092,23.231693,23.224497,23.214497,23.207115,23.19695,23.190092,23.182692,23.179008,23.172962,23.1679,23.162561,23.15516,23.141369,23.115088,23.073467,23.02081,22.987915,22.918383,22.82454,22.711626,22.66517,22.66526,23.109913,20.749275,16.919102,12.35929,9.676704,8.090161,8.486655
16.844072,21.06587,23.695591,23.991745,23.572533,23.619368,23.647926,23.646889,23.643225,23.642435,23.636457,23.62874,23.623909,23.624718,23.630611,23.639269,23.649578,23.657919,23.666517,23.671682,23.674648,23.674572,23.673998,23.671204,23.667639,23.663486,23.66153,23.658031,23.654984,23.648912,23.643335,23.637573,23.634958,23.6309,23.628094,23.62538,23.624216,23.623247,23.622826,23.621922,23.6209,23.619875,23.619022,23.618662,23.618214,23.617577,23.61717,23.617296,23.617395,23.617447,23.616693,23.615591,23.61432,23.613443,23.611206,23.608755,23.605755,23.602867,23.599009,23.594318,23.588608,23.581408,23.574825,23.565626,23.557203,23.545504,23.53651,23.523897,23.514942,23.501,23.490463,23.474627,23.462864,23.445913,23.432823,23.413923,23.397903,23.378345,23.361116,23.34174,23.322876,23.30454,23.285872,23.271164,23.254774,23.24192,23.22841,23.221176,23.211023,23.203474,23.193048,23.185997,23.17819,23.174103,23.167267,23.161377,23.154741,23.146198,23.13127,23.10456,23.063185,23.011482,22.979675,22.911104,22.8165,22.706425,22.666922,22.664888,23.08341,20.811462,17.145458,12.595791,9.775255,8.126737,8.541681
17.024242,21.153774,23.680109,23.967388,23.557117,23.598104,23.622393,23.621523,23.617882,23.616571,23.610048,23.602085,23.597004,23.597723,23.60347,23.612062,23.622425,23.630985,23.63995,23.64567,23.649338,23.650097,23.65021,23.648293,23.645548,23.642376,23.641064,23.638353,23.635801,23.630522,23.62558,23.62059,23.618433,23.615059,23.612762,23.610706,23.610022,23.60958,23.609589,23.609224,23.608763,23.60828,23.608017,23.608114,23.60825,23.6081,23.608315,23.60887,23.609539,23.609972,23.60972,23.608925,23.608007,23.607313,23.605312,23.603,23.600124,23.59729,23.593506,23.588896,23.583324,23.576237,23.569677,23.560478,23.552048,23.54039,23.531483,23.518948,23.509995,23.496202,23.485872,23.47036,23.45885,23.44215,23.429186,23.410578,23.394838,23.37554,23.358482,23.339209,23.32048,23.302464,23.284063,23.269419,23.252937,23.239954,23.226229,23.21886,23.208357,23.20044,23.189545,23.182201,23.17384,23.169231,23.161482,23.154676,23.146612,23.13678,23.120455,23.093079,23.051647,23.001087,22.970798,22.905085,22.813133,22.707605,22.673613,22.666447,23.055834,20.872332,17.372877,12.843462,9.896536,8.186281,8.610612
17.151196,21.212456,23.663496,23.946402,23.544893,23.582207,23.603794,23.60334,23.60003,23.598536,23.591707,23.583494,23.578178,23.578808,23.584377,23.592848,23.603138,23.611776,23.62099,23.62713,23.631292,23.63264,23.633238,23.631968,23.62986,23.627419,23.626543,23.624386,23.622194,23.61754,23.61312,23.60873,23.6069,23.604074,23.602213,23.600647,23.600273,23.600157,23.600422,23.600397,23.600294,23.600138,23.600239,23.600653,23.601213,23.601439,23.602137,23.60303,23.604164,23.604933,23.605118,23.604603,23.603996,23.603455,23.601683,23.599516,23.596779,23.594013,23.590307,23.585789,23.580359,23.573402,23.566889,23.557726,23.549334,23.537762,23.528944,23.516521,23.507616,23.493994,23.483852,23.46863,23.457342,23.440895,23.428085,23.409754,23.39425,23.375204,23.358316,23.339169,23.320566,23.302801,23.284607,23.27002,23.253458,23.240343,23.226385,23.218855,23.20797,23.199665,23.188324,23.180742,23.17195,23.166973,23.158638,23.151289,23.142366,23.131735,23.114428,23.086473,23.044712,22.994858,22.965675,22.902945,22.815086,22.713303,22.68116,22.668196,23.037657,20.906042,17.50697,12.997299,9.984456,8.23712,8.65909
17.298767,21.278309,23.641275,23.919067,23.527828,23.560413,23.578827,23.579405,23.57701,23.575434,23.56841,23.56,23.554558,23.555185,23.560638,23.568998,23.579277,23.588087,23.59769,23.604437,23.609308,23.61151,23.612837,23.61251,23.611292,23.60988,23.609669,23.60833,23.606667,23.602865,23.599123,23.595545,23.594175,23.592068,23.590736,23.589787,23.589823,23.590162,23.590776,23.591179,23.591497,23.591755,23.592304,23.59309,23.594137,23.594767,23.596004,23.59728,23.598953,23.600101,23.600792,23.600609,23.600367,23.600012,23.598516,23.596539,23.593966,23.59127,23.587652,23.583225,23.57796,23.571144,23.564684,23.555555,23.547213,23.535755,23.527067,23.514801,23.505968,23.492556,23.48264,23.46775,23.456717,23.44054,23.427887,23.409853,23.39462,23.375868,23.35919,23.3402,23.321781,23.304361,23.286474,23.27201,23.255411,23.242176,23.227968,23.220255,23.208908,23.200129,23.18823,23.180347,23.171041,23.16564,23.156675,23.148777,23.138992,23.127583,23.109322,23.080935,23.039167,22.99055,22.962887,22.904034,22.821392,22.724825,22.69575,22.677435,23.026243,20.945723,17.646019,13.16735,10.1047945,8.323466,8.733889
17.384535,21.31517,23.626844,23.901539,23.516123,23.54553,23.56196,23.563442,23.561909,23.5604,23.553406,23.544958,23.539568,23.540281,23.545742,23.554066,23.5644,23.57338,23.58328,23.590464,23.59586,23.598684,23.600561,23.600927,23.60033,23.599659,23.599953,23.599228,23.59795,23.59473,23.591425,23.588402,23.587376,23.585724,23.584707,23.58415,23.584455,23.58512,23.585987,23.586649,23.587221,23.587744,23.58858,23.589582,23.590883,23.591719,23.593237,23.594719,23.596678,23.59802,23.598982,23.598988,23.598951,23.598701,23.597368,23.595505,23.593023,23.590364,23.58679,23.582405,23.57722,23.57048,23.564041,23.554932,23.54661,23.53522,23.526625,23.514467,23.505682,23.49239,23.4826,23.467896,23.45699,23.440935,23.428345,23.410456,23.395365,23.37677,23.36021,23.341316,23.323025,23.305841,23.28818,23.273832,23.257256,23.24398,23.229656,23.22185,23.210241,23.201176,23.188942,23.180874,23.171267,23.16563,23.156347,23.148191,23.138012,23.126274,23.107622,23.079203,23.037756,22.990217,22.963722,22.907394,22.82782,22.734879,22.708614,22.688635,23.027401,20.970385,17.716455,13.261917,10.189798,8.394896,8.791738
17.459122,21.342318,23.607445,23.877987,23.497025,23.523191,23.53905,23.543713,23.544632,23.543003,23.535992,23.5276,23.52243,23.523378,23.52901,23.537407,23.54795,23.557241,23.56764,23.575445,23.581535,23.585173,23.587797,23.589108,23.58936,23.589685,23.590643,23.590736,23.589989,23.587551,23.584814,23.582497,23.581898,23.580868,23.580297,23.58028,23.580963,23.582106,23.583366,23.58444,23.585382,23.58626,23.587473,23.5888,23.590488,23.59161,23.593512,23.595274,23.597654,23.599335,23.600702,23.600945,23.601185,23.601082,23.599972,23.598255,23.595863,23.59321,23.589672,23.585333,23.580212,23.573517,23.567078,23.557974,23.549677,23.53838,23.529896,23.5179,23.509224,23.496141,23.48654,23.4721,23.461376,23.445517,23.43303,23.415346,23.400448,23.382067,23.365677,23.346935,23.328835,23.311985,23.294647,23.280478,23.26396,23.250668,23.236208,23.228271,23.216301,23.206846,23.194157,23.18584,23.175829,23.16988,23.160217,23.1518,23.141216,23.129175,23.110147,23.081802,23.041191,22.994701,22.967855,22.913332,22.838272,22.750242,22.726645,22.705202,23.036215,20.991652,17.763815,13.337398,10.27951,8.486397,8.871733
17.473986,21.341211,23.594559,23.862495,23.48169,23.506527,23.523596,23.531796,23.53529,23.533434,23.526373,23.518103,23.5132,23.514412,23.520285,23.52882,23.539616,23.549185,23.559992,23.568253,23.574806,23.578978,23.582106,23.584066,23.584902,23.5859,23.587296,23.58794,23.58757,23.585651,23.583275,23.58141,23.581083,23.580475,23.580221,23.580572,23.581518,23.58302,23.584585,23.585978,23.587189,23.5883,23.589762,23.591331,23.5933,23.594616,23.596773,23.598715,23.601408,23.603355,23.605019,23.60541,23.605827,23.605818,23.604853,23.60323,23.600874,23.59819,23.594666,23.590336,23.585218,23.578514,23.572044,23.562935,23.554651,23.543415,23.534986,23.523106,23.514532,23.501616,23.492144,23.477882,23.467281,23.451553,23.439144,23.421598,23.406824,23.388582,23.372313,23.35368,23.335724,23.3191,23.301994,23.287966,23.271524,23.258253,23.243732,23.235718,23.223515,23.213808,23.200829,23.192352,23.182083,23.175943,23.166084,23.157574,23.146852,23.134739,23.115625,23.08746,23.047758,23.001707,22.973257,22.918777,22.847015,22.762291,22.739626,22.717968,23.048656,20.9963,17.755985,13.34533,10.320638,8.545362,8.927692
17.446726,21.314482,23.579145,23.84527,23.461435,23.485092,23.503582,23.515406,23.521446,23.519241,23.51202,23.503817,23.499199,23.50073,23.506908,23.515629,23.526787,23.536777,23.548166,23.55706,23.564257,23.569153,23.572971,23.57581,23.577406,23.579327,23.581352,23.582802,23.58298,23.58183,23.579987,23.578815,23.57892,23.578938,23.579132,23.580023,23.581347,23.583364,23.585367,23.587193,23.588772,23.590221,23.592047,23.59395,23.596312,23.597914,23.600437,23.60264,23.605743,23.608023,23.610054,23.61063,23.611242,23.611315,23.610498,23.608976,23.606644,23.603924,23.6004,23.596088,23.59098,23.58427,23.577772,23.568634,23.56034,23.549118,23.540714,23.528893,23.520369,23.507545,23.49814,23.483984,23.473461,23.457802,23.445423,23.427982,23.41333,23.39523,23.379086,23.360563,23.342781,23.32645,23.309683,23.295881,23.279621,23.266459,23.251999,23.24402,23.231707,23.221794,23.2086,23.200022,23.18957,23.183283,23.1733,23.164768,23.15406,23.142078,23.12313,23.095495,23.057236,23.012163,22.98226,22.92836,22.8611,22.780283,22.758045,22.735773,23.067833,20.996641,17.724903,13.332516,10.3621645,8.620199,9.003934
17.388855,21.274279,23.568535,23.834423,23.44583,23.469492,23.48923,23.502882,23.510101,23.507599,23.500198,23.492016,23.487593,23.489386,23.495825,23.504726,23.516233,23.526598,23.538475,23.547869,23.555555,23.560997,23.565351,23.56885,23.571007,23.57362,23.576149,23.578255,23.57888,23.578346,23.57693,23.576324,23.5768,23.577318,23.577864,23.579178,23.580812,23.583244,23.585598,23.587765,23.58964,23.59136,23.593485,23.595661,23.598337,23.600168,23.60298,23.605383,23.608778,23.611282,23.613556,23.614246,23.614962,23.615059,23.614302,23.612825,23.610485,23.607725,23.604193,23.599878,23.594765,23.588041,23.58152,23.57235,23.564024,23.55276,23.544323,23.532469,23.52393,23.511072,23.501642,23.487461,23.476929,23.461233,23.448824,23.431385,23.416767,23.398705,23.382607,23.364101,23.346395,23.330233,23.313694,23.300076,23.28401,23.270975,23.256674,23.248829,23.236582,23.226637,23.213413,23.204832,23.194351,23.188034,23.178055,23.16959,23.159056,23.147366,23.12879,23.101818,23.06485,23.020802,22.990307,22.937159,22.873234,22.794926,22.772306,22.750088,23.08608,20.993504,17.683945,13.303451,10.384624,8.675246,9.062384
17.338402,21.234783,23.552233,23.816952,23.424414,23.448765,23.46987,23.48453,23.492285,23.489489,23.481934,23.473808,23.469685,23.471851,23.478724,23.487963,23.500013,23.510927,23.523474,23.533533,23.541885,23.548079,23.553165,23.55757,23.560457,23.564001,23.56722,23.570211,23.571434,23.571693,23.570795,23.570904,23.571852,23.573,23.573963,23.575806,23.577827,23.580786,23.583588,23.586197,23.58846,23.59057,23.593119,23.59566,23.598751,23.600872,23.604048,23.606705,23.610445,23.613192,23.61573,23.616539,23.617367,23.617495,23.616789,23.61533,23.61297,23.610163,23.606617,23.602291,23.597155,23.5904,23.583858,23.574646,23.56627,23.554937,23.546455,23.534552,23.525986,23.513086,23.503614,23.489403,23.478868,23.463125,23.450657,23.433157,23.418495,23.400375,23.384212,23.365587,23.347816,23.331688,23.315289,23.301825,23.28594,23.273012,23.258871,23.251186,23.239052,23.229105,23.215836,23.207186,23.196592,23.19018,23.180105,23.171629,23.161203,23.149813,23.131704,23.105604,23.070127,23.027689,22.997633,22.946394,22.886322,22.811357,22.788963,22.769037,23.11158,21.001188,17.655891,13.295785,10.437841,8.75862,9.138453
17.314684,21.211126,23.536575,23.799768,23.4059,23.431717,23.454054,23.468523,23.47598,23.473028,23.46544,23.457418,23.453617,23.456152,23.463476,23.473076,23.485672,23.497093,23.510225,23.52084,23.529745,23.536554,23.542267,23.547419,23.550903,23.55522,23.559032,23.562792,23.56454,23.565472,23.564985,23.565693,23.567059,23.568747,23.570063,23.572365,23.57474,23.578167,23.581383,23.584396,23.58703,23.589516,23.592466,23.59535,23.598822,23.601215,23.604713,23.607594,23.611607,23.614525,23.617233,23.618109,23.618986,23.61911,23.618391,23.616903,23.614487,23.61163,23.608046,23.603697,23.598515,23.591713,23.585148,23.575895,23.567463,23.55605,23.547508,23.53554,23.526943,23.513985,23.504457,23.490202,23.479658,23.463865,23.451332,23.43374,23.418991,23.400763,23.384478,23.365664,23.347727,23.33151,23.315125,23.301737,23.28597,23.273096,23.259073,23.251522,23.239506,23.229595,23.216282,23.20753,23.196785,23.190264,23.180065,23.171553,23.161196,23.150068,23.132425,23.107157,23.072903,23.03202,23.003027,22.95389,22.896753,22.824495,22.802303,22.785648,23.13443,21.019958,17.660301,13.320657,10.503647,8.839235,9.206545
17.319542,21.202436,23.519148,23.779882,23.387188,23.414953,23.439127,23.4538,23.461271,23.458214,23.4507,23.442879,23.439507,23.442472,23.450308,23.460289,23.47345,23.485394,23.499115,23.51026,23.519684,23.527061,23.533358,23.539225,23.543283,23.548344,23.552732,23.557257,23.559536,23.561148,23.56108,23.5624,23.564203,23.566477,23.5682,23.571033,23.57381,23.577793,23.581488,23.584974,23.588037,23.590944,23.59435,23.597622,23.60153,23.604246,23.60812,23.611256,23.615574,23.618692,23.621586,23.622526,23.623436,23.62353,23.622772,23.62124,23.618748,23.615818,23.61218,23.607792,23.602545,23.595678,23.589079,23.579771,23.571276,23.559776,23.551165,23.539131,23.530512,23.517498,23.507917,23.493622,23.483074,23.467255,23.454685,23.437044,23.422256,23.403975,23.387619,23.368668,23.350609,23.334349,23.31801,23.304722,23.289076,23.276249,23.262304,23.254845,23.242872,23.232943,23.21948,23.210546,23.199554,23.192852,23.182487,23.17394,23.163647,23.152786,23.13561,23.111181,23.07822,23.038782,23.01038,22.962988,22.908978,22.839392,22.816837,22.802954,23.156553,21.047276,17.688942,13.370647,10.581234,8.924892,9.280706
17.34052,21.203062,23.50306,23.761742,23.371994,23.401604,23.42731,23.441954,23.44936,23.446337,23.439024,23.431444,23.428514,23.431871,23.440165,23.450462,23.464106,23.476475,23.490686,23.50225,23.512068,23.519878,23.52664,23.533085,23.537603,23.543282,23.54816,23.553352,23.55611,23.558329,23.558634,23.56052,23.56275,23.565596,23.567736,23.571106,23.5743,23.57885,23.583036,23.58701,23.590511,23.593851,23.597708,23.601366,23.605717,23.60877,23.613028,23.616405,23.620993,23.624273,23.627295,23.628262,23.629137,23.629143,23.62827,23.626637,23.624014,23.620977,23.617247,23.612785,23.607445,23.600492,23.593853,23.5845,23.575953,23.564384,23.555723,23.543653,23.535038,23.522001,23.512386,23.498085,23.487562,23.471752,23.459185,23.441557,23.426773,23.408495,23.392113,23.373055,23.354889,23.338581,23.322256,23.30903,23.293451,23.280632,23.266708,23.259296,23.24733,23.237377,23.223778,23.214674,23.203463,23.19663,23.186188,23.177687,23.167522,23.15696,23.140303,23.116713,23.085052,23.046875,23.018684,22.972557,22.921352,22.854158,22.831007,22.819124,23.17383,21.088165,17.763386,13.467271,10.676699,9.014296,9.360885
17.345045,21.195957,23.490301,23.74838,23.360508,23.391357,23.417866,23.432196,23.439379,23.436445,23.429304,23.421885,23.419258,23.422888,23.431486,23.441998,23.455969,23.468649,23.483232,23.495136,23.505253,23.513403,23.520533,23.52745,23.532341,23.538536,23.543833,23.549595,23.552753,23.555492,23.55613,23.558533,23.56115,23.564522,23.567036,23.57089,23.574461,23.579508,23.58412,23.588524,23.59242,23.596146,23.60042,23.60443,23.609186,23.61256,23.617176,23.62078,23.625608,23.629013,23.632135,23.633112,23.63393,23.633827,23.632803,23.631042,23.628258,23.625103,23.621254,23.6167,23.611246,23.60421,23.597534,23.588158,23.579573,23.567974,23.559294,23.547226,23.538633,23.525608,23.515976,23.501698,23.491217,23.475452,23.46291,23.44533,23.430582,23.412348,23.395964,23.376833,23.358576,23.342216,23.325882,23.312683,23.297125,23.284285,23.270357,23.262972,23.25102,23.24107,23.227402,23.218197,23.206888,23.200014,23.189585,23.181181,23.171192,23.160929,23.144777,23.121973,23.091537,23.05445,23.026226,22.981003,22.932245,22.867222,22.843637,22.832985,23.186325,21.130192,17.85085,13.57541,10.770688,9.097654,9.438275
17.355696,21.19131,23.477926,23.735981,23.35064,23.381897,23.408455,23.422426,23.429487,23.426788,23.419983,23.412811,23.410574,23.414505,23.42342,23.434114,23.448381,23.461336,23.476261,23.488483,23.49886,23.507317,23.514801,23.522188,23.527454,23.534168,23.539885,23.546228,23.549812,23.553104,23.554087,23.557053,23.560106,23.56407,23.567009,23.571424,23.57543,23.581043,23.586138,23.591028,23.595356,23.599499,23.60419,23.608545,23.613695,23.617376,23.622318,23.626108,23.631102,23.63457,23.637703,23.638632,23.63929,23.639004,23.637737,23.635798,23.63279,23.629482,23.625488,23.620834,23.61526,23.608143,23.601437,23.592049,23.583445,23.571842,23.563162,23.551134,23.542599,23.529633,23.520018,23.50581,23.495409,23.47973,23.46724,23.449738,23.435047,23.416866,23.400478,23.381268,23.362894,23.346455,23.330065,23.316868,23.301302,23.288427,23.27448,23.2671,23.255203,23.24532,23.23169,23.222467,23.211206,23.20442,23.194237,23.18613,23.176521,23.166706,23.151262,23.129444,23.100506,23.064621,23.036171,22.991709,22.945496,22.882898,22.859041,22.849049,23.196987,21.189766,17.989668,13.739961,10.896656,9.2018385,9.53893
17.369223,21.190393,23.46843,23.72654,23.343452,23.374445,23.40065,23.4145,23.421673,23.419243,23.412819,23.405916,23.404074,23.408285,23.417477,23.428308,23.442793,23.45594,23.471117,23.483566,23.494122,23.502798,23.510555,23.51831,23.523872,23.530993,23.537022,23.54381,23.547735,23.551456,23.552706,23.5561,23.559492,23.563927,23.567215,23.572086,23.576456,23.582539,23.58803,23.593323,23.597998,23.602468,23.60748,23.612076,23.617485,23.621367,23.626495,23.630384,23.635445,23.63892,23.642014,23.642878,23.643372,23.64292,23.641459,23.639378,23.636211,23.632795,23.62871,23.624004,23.61836,23.611204,23.604488,23.595102,23.586494,23.574894,23.566223,23.55424,23.545769,23.53287,23.523293,23.509163,23.498837,23.483236,23.470783,23.45332,23.438633,23.420448,23.404016,23.384697,23.36619,23.349628,23.333158,23.319933,23.304348,23.291435,23.27746,23.270067,23.258219,23.248411,23.234835,23.225615,23.214424,23.207748,23.197823,23.190018,23.180769,23.171356,23.156544,23.135565,23.107838,23.072966,23.044466,23.000683,22.95638,22.89578,22.872019,22.862549,23.205093,21.241318,18.112381,13.88363,11.002788,9.287661,9.622988
17.403402,21.199728,23.459291,23.717001,23.33746,23.367468,23.392773,23.406548,23.413942,23.411842,23.40591,23.399364,23.39802,23.40257,23.412113,23.42313,23.437897,23.451296,23.466784,23.479513,23.490294,23.499231,23.507305,23.51547,23.521364,23.528933,23.53531,23.542606,23.546919,23.551132,23.552685,23.556578,23.56036,23.565351,23.569052,23.574448,23.57922,23.58582,23.59174,23.597452,23.602465,23.607237,23.612513,23.61731,23.622915,23.626968,23.632221,23.636145,23.641169,23.644579,23.647512,23.648212,23.648396,23.64766,23.645863,23.643559,23.64012,23.636524,23.632286,23.627502,23.621775,23.614563,23.607819,23.598433,23.589832,23.57825,23.569595,23.557661,23.549253,23.536436,23.52692,23.512896,23.502657,23.48717,23.474796,23.45745,23.442858,23.424765,23.408365,23.389034,23.370481,23.353884,23.337404,23.324203,23.308666,23.295784,23.28186,23.2745,23.26283,23.253252,23.239986,23.230967,23.220148,23.213818,23.204584,23.197458,23.188953,23.180197,23.166334,23.146477,23.120413,23.086664,23.057575,23.014074,22.972034,22.913649,22.8896,22.8796,23.212315,21.31331,18.292524,14.093971,11.153938,9.408686,9.744075
17.440386,21.214155,23.45457,23.711521,23.33506,23.364138,23.388636,23.402372,23.40992,23.40802,23.402403,23.396105,23.39509,23.399876,23.409672,23.420845,23.435848,23.449448,23.46518,23.47812,23.489088,23.498224,23.506512,23.514944,23.521042,23.528889,23.535488,23.543102,23.547651,23.552176,23.553913,23.558117,23.562143,23.567486,23.571447,23.577164,23.58216,23.589058,23.595215,23.601149,23.606314,23.611208,23.61657,23.621418,23.627089,23.631212,23.63649,23.640383,23.64532,23.648647,23.6514,23.651936,23.651827,23.65084,23.648743,23.64624,23.642555,23.638796,23.63442,23.629562,23.623762,23.6165,23.609716,23.60032,23.591734,23.58018,23.571533,23.559618,23.551226,23.538454,23.52898,23.515018,23.504826,23.489414,23.477116,23.459925,23.445484,23.427538,23.411247,23.392023,23.37356,23.357048,23.34066,23.327534,23.312098,23.2993,23.28549,23.278185,23.266731,23.257406,23.244524,23.23579,23.225431,23.219482,23.210987,23.204554,23.196772,23.188581,23.175493,23.156467,23.131664,23.098583,23.068611,23.024826,22.98432,22.927242,22.90251,22.891289,23.215443,21.367344,18.432486,14.257197,11.269191,9.500056,9.836358
17.484535,21.230772,23.449871,23.705996,23.332966,23.360477,23.383673,23.397406,23.405207,23.403574,23.398376,23.392403,23.391815,23.396881,23.406973,23.418308,23.433563,23.447374,23.46337,23.476536,23.487694,23.497044,23.50557,23.514318,23.520664,23.528875,23.535772,23.543842,23.548746,23.553745,23.555784,23.560482,23.56489,23.570765,23.575113,23.581306,23.586649,23.593983,23.600487,23.606752,23.61216,23.617252,23.622753,23.627687,23.63343,23.637629,23.642916,23.64675,23.65154,23.65473,23.657225,23.657534,23.657019,23.65569,23.653181,23.650408,23.646381,23.642397,23.637825,23.63287,23.626982,23.619677,23.612852,23.603453,23.59489,23.583376,23.57475,23.562878,23.554514,23.541828,23.532436,23.518602,23.508503,23.493238,23.481064,23.464083,23.449831,23.432068,23.415888,23.396767,23.378374,23.361929,23.34562,23.33258,23.317272,23.304586,23.290941,23.283731,23.272621,23.263689,23.251385,23.243073,23.233372,23.227968,23.220507,23.21503,23.208225,23.200777,23.18872,23.17082,23.147713,23.115559,23.084496,23.040419,23.001951,22.946733,22.921368,22.908257,23.219368,21.44418,18.633146,14.493214,11.438689,9.639539,9.980779
17.507261,21.238207,23.447731,23.703573,23.33218,23.358421,23.380589,23.394346,23.402355,23.400906,23.395998,23.390244,23.389938,23.39518,23.405441,23.416855,23.432234,23.446154,23.46228,23.47556,23.486805,23.496256,23.50491,23.513842,23.520344,23.528797,23.535898,23.544296,23.54947,23.554842,23.557129,23.562216,23.566925,23.57321,23.577848,23.584408,23.590015,23.597685,23.604452,23.61098,23.616581,23.621847,23.62747,23.632475,23.638271,23.642519,23.647799,23.651587,23.65626,23.659348,23.661655,23.661806,23.66102,23.659447,23.656658,23.653698,23.64944,23.645298,23.64059,23.63557,23.629633,23.62231,23.615473,23.606073,23.597532,23.58605,23.577446,23.565613,23.557283,23.544674,23.535357,23.521639,23.511631,23.4965,23.484428,23.467594,23.453447,23.43579,23.41966,23.400558,23.38216,23.365707,23.349411,23.336405,23.321169,23.308546,23.295013,23.287872,23.27702,23.26838,23.256493,23.248472,23.239223,23.234194,23.227432,23.222599,23.216421,23.209446,23.198067,23.180923,23.158957,23.127462,23.095734,23.05154,23.01445,22.960594,22.935003,22.92052,23.221811,21.499708,18.779171,14.664965,11.561745,9.743162,10.091334
17.566645,21.264118,23.444944,23.698965,23.331427,23.356009,23.376884,23.390675,23.398922,23.397667,23.39308,23.387579,23.387531,23.39288,23.403212,23.414618,23.43004,23.444023,23.460224,23.473593,23.484928,23.494528,23.503359,23.512554,23.519278,23.528074,23.53546,23.544317,23.54987,23.555752,23.558378,23.563993,23.569105,23.575953,23.580996,23.588057,23.59402,23.602142,23.609259,23.616137,23.621994,23.627472,23.633238,23.63833,23.644169,23.64846,23.653715,23.657442,23.66198,23.664948,23.667042,23.667015,23.665913,23.66407,23.66096,23.657784,23.653254,23.648924,23.644053,23.638956,23.632965,23.625624,23.618757,23.60935,23.60082,23.589367,23.580776,23.568975,23.560667,23.548132,23.538906,23.525318,23.51541,23.500423,23.488457,23.471779,23.457756,23.440222,23.424166,23.405125,23.386778,23.370388,23.354212,23.34134,23.326315,23.313864,23.300589,23.29361,23.28319,23.275002,23.263773,23.256224,23.24772,23.243305,23.23766,23.23384,23.228703,23.222507,23.212193,23.196186,23.175768,23.145348,23.113312,23.069422,23.034071,22.982094,22.956942,22.940262,23.228138,21.565876,18.94873,14.885108,11.755123,9.9226,10.26628
17.62776,21.293175,23.443079,23.694803,23.331087,23.354628,23.374722,23.388535,23.396912,23.395758,23.391342,23.385986,23.386032,23.391369,23.401642,23.41296,23.42833,23.442299,23.458479,23.471867,23.483246,23.492952,23.501911,23.5113,23.518177,23.52722,23.534805,23.543993,23.549812,23.556051,23.558908,23.564888,23.570272,23.577509,23.582838,23.59024,23.596449,23.604876,23.612234,23.61934,23.625364,23.630974,23.636824,23.641956,23.64781,23.652105,23.657333,23.661015,23.665466,23.668364,23.670338,23.670214,23.668938,23.666952,23.663668,23.660376,23.655685,23.651247,23.646278,23.641134,23.635118,23.627764,23.620876,23.611456,23.602926,23.591482,23.5829,23.57111,23.562801,23.550308,23.541134,23.527624,23.51778,23.502865,23.49095,23.474354,23.4604,23.44293,23.426931,23.407944,23.389671,23.373373,23.357353,23.344639,23.329838,23.317566,23.304537,23.297724,23.287663,23.279818,23.269098,23.261919,23.25401,23.25008,23.245312,23.242273,23.237963,23.232395,23.222906,23.207737,23.188354,23.1588,23.127005,23.08368,23.049395,22.998728,22.974468,22.956062,23.234816,21.603537,19.041168,15.024289,11.907305,10.075548,10.405653
17.7143,21.333115,23.43768,23.686138,23.328539,23.35143,23.371048,23.38483,23.393366,23.392427,23.38839,23.383356,23.38374,23.389238,23.39969,23.411104,23.42663,23.44074,23.457067,23.470604,23.48217,23.492123,23.501326,23.51104,23.518185,23.527622,23.535532,23.545216,23.551424,23.55819,23.56139,23.56789,23.573664,23.581438,23.587156,23.59503,23.601566,23.61042,23.61811,23.625532,23.631783,23.637587,23.643555,23.648733,23.654575,23.658848,23.66399,23.667582,23.671862,23.674616,23.676378,23.6761,23.67456,23.672356,23.66879,23.665302,23.660364,23.655748,23.6506,23.645348,23.639265,23.631886,23.624968,23.615559,23.607063,23.59569,23.58718,23.575493,23.567251,23.554901,23.545858,23.532537,23.522823,23.508074,23.496267,23.479826,23.465982,23.448626,23.432697,23.413774,23.395578,23.379383,23.36354,23.35102,23.336483,23.324408,23.311655,23.30502,23.295366,23.287907,23.277754,23.270967,23.263714,23.260334,23.256563,23.254433,23.25107,23.24623,23.23773,23.223595,23.205484,23.17705,23.145668,23.103172,23.070255,23.02136,22.998552,22.978212,23.246523,21.645645,19.137192,15.191862,12.1224785,10.303702,10.608393
17.783985,21.364594,23.431583,23.677414,23.325207,23.34813,23.367767,23.381489,23.390137,23.389418,23.385765,23.381058,23.38182,23.387543,23.398273,23.409866,23.425636,23.439934,23.456453,23.47016,23.481928,23.492119,23.50155,23.511549,23.518927,23.528698,23.536882,23.546968,23.553488,23.560663,23.564129,23.57102,23.577082,23.585247,23.591242,23.599455,23.606234,23.615404,23.623343,23.631,23.637413,23.643366,23.649408,23.654606,23.6604,23.664618,23.669641,23.673134,23.677242,23.679846,23.681412,23.681013,23.679274,23.67691,23.673132,23.669481,23.66435,23.659597,23.654291,23.64894,23.642784,23.63538,23.628445,23.619059,23.610605,23.599333,23.590921,23.579382,23.571243,23.559072,23.550173,23.537062,23.527494,23.512918,23.501217,23.484907,23.47116,23.4539,23.438026,23.419142,23.401001,23.38489,23.36919,23.356834,23.342505,23.330574,23.31802,23.311527,23.302155,23.294958,23.285166,23.278624,23.271788,23.268772,23.26565,23.264109,23.261368,23.257011,23.24918,23.23576,23.218481,23.190878,23.160032,23.118353,23.08635,23.038858,23.017607,22.996218,23.258158,21.669325,19.182682,15.300895,12.297915,10.500769,10.778555
17.859047,21.396902,23.423677,23.666967,23.320822,23.343508,23.36298,23.376724,23.385626,23.385227,23.382084,23.377773,23.378979,23.38493,23.3959,23.407608,23.423565,23.438002,23.454632,23.46843,23.48033,23.490723,23.500383,23.51069,23.518314,23.528458,23.536963,23.547523,23.554405,23.562037,23.565779,23.573093,23.579466,23.588055,23.594341,23.602934,23.61,23.619553,23.62781,23.635757,23.642376,23.64851,23.654636,23.65984,23.665531,23.669617,23.674433,23.677774,23.681627,23.684025,23.685331,23.684774,23.682823,23.68031,23.67631,23.672493,23.667177,23.662296,23.656841,23.651382,23.645147,23.63771,23.630764,23.621416,23.613003,23.601852,23.593575,23.582254,23.57428,23.562376,23.553682,23.540873,23.531528,23.517202,23.505642,23.489487,23.475826,23.458673,23.44288,23.424053,23.405989,23.390001,23.374538,23.36245,23.348475,23.336788,23.324589,23.318363,23.309464,23.30267,23.293428,23.287264,23.281061,23.278582,23.276356,23.275595,23.273697,23.270002,23.263062,23.250563,23.234293,23.207771,23.17779,23.13735,23.10647,23.06108,23.04239,23.020334,23.274033,21.70391,19.25017,15.4524555,12.533545,10.762876,11.004888
17.921144,21.42339,23.417362,23.658806,23.317759,23.340048,23.359129,23.37277,23.381823,23.381725,23.379032,23.375057,23.37663,23.382769,23.393917,23.405685,23.42177,23.436304,23.452991,23.466831,23.478813,23.489353,23.4992,23.50977,23.517595,23.528053,23.536823,23.547768,23.554935,23.56292,23.56686,23.574467,23.58105,23.589912,23.59639,23.60523,23.612494,23.62232,23.6308,23.638952,23.645704,23.651957,23.658115,23.66329,23.668837,23.67276,23.677345,23.680534,23.684149,23.68635,23.687426,23.686743,23.684633,23.68203,23.677877,23.67394,23.668507,23.663551,23.657993,23.652456,23.646154,23.6387,23.631748,23.622429,23.614038,23.602991,23.594837,23.583717,23.575901,23.564238,23.555733,23.543207,23.534073,23.519987,23.508553,23.492533,23.478945,23.461908,23.446215,23.42746,23.409502,23.393665,23.378471,23.36667,23.353064,23.34163,23.329798,23.323854,23.31541,23.308985,23.300253,23.294437,23.288818,23.286829,23.28537,23.285252,23.284073,23.280943,23.274746,23.262993,23.247477,23.22187,23.192852,23.153667,23.12365,23.080172,23.064138,23.041895,23.289194,21.730341,19.29654,15.575016,12.741501,11.001383,11.212465
18.003906,21.461603,23.412554,23.651405,23.316597,23.33825,23.356583,23.369818,23.37878,23.378944,23.37665,23.372984,23.374899,23.381214,23.392542,23.404392,23.420631,23.435299,23.452097,23.466045,23.47818,23.488949,23.499044,23.509943,23.518032,23.528864,23.53794,23.549301,23.556774,23.56513,23.56929,23.5772,23.583982,23.593111,23.59977,23.608845,23.616285,23.62635,23.635017,23.643335,23.650183,23.656523,23.662683,23.6678,23.673193,23.67696,23.681334,23.684378,23.687769,23.68979,23.690657,23.689854,23.68758,23.684868,23.680548,23.676483,23.670916,23.66587,23.660192,23.654564,23.648197,23.640709,23.633738,23.62443,23.616047,23.605083,23.597034,23.586086,23.578402,23.566956,23.55862,23.546358,23.53742,23.52356,23.512247,23.496391,23.482925,23.466053,23.45051,23.431898,23.414116,23.398504,23.383635,23.37216,23.358948,23.347795,23.336336,23.330656,23.322643,23.316559,23.308329,23.302862,23.297838,23.296349,23.295673,23.296219,23.295795,23.293272,23.28784,23.276854,23.26209,23.237469,23.2096,23.17181,23.142637,23.100975,23.087687,23.064844,23.305817,21.751387,19.32671,15.685442,12.95305,11.255411,11.438636
18.083954,21.499237,23.410032,23.646679,23.317696,23.3383,23.355312,23.367754,23.376379,23.376837,23.374973,23.371622,23.373922,23.38047,23.392056,23.404057,23.420528,23.435392,23.452377,23.466501,23.478846,23.48988,23.500235,23.511477,23.519838,23.53105,23.540422,23.55219,23.559948,23.568663,23.573044,23.58122,23.588148,23.597446,23.604204,23.613396,23.620913,23.63108,23.639814,23.64817,23.655018,23.661356,23.667437,23.672432,23.677614,23.681185,23.685303,23.688185,23.69133,23.693161,23.6938,23.692873,23.690424,23.687595,23.683117,23.678934,23.673252,23.668133,23.662361,23.656664,23.650269,23.64278,23.635805,23.626509,23.618128,23.607222,23.599253,23.588427,23.580816,23.56952,23.561325,23.549292,23.540535,23.526882,23.515694,23.50002,23.486704,23.470034,23.454681,23.436255,23.418692,23.40335,23.388842,23.377697,23.364885,23.354027,23.342947,23.337543,23.329979,23.324244,23.316555,23.311483,23.307089,23.306097,23.306175,23.307331,23.30761,23.305632,23.300863,23.290518,23.276382,23.252613,23.22577,23.18924,23.160862,23.120811,23.110006,23.08631,23.321547,21.766771,19.343388,15.779831,13.152489,11.504455,11.666198
18.145039,21.527016,23.40803,23.643433,23.319088,23.338564,23.354092,23.365623,23.37389,23.374748,23.373432,23.370464,23.373276,23.380173,23.392168,23.404425,23.421242,23.436369,23.45362,23.467955,23.48053,23.49181,23.502396,23.513918,23.522514,23.534046,23.54369,23.555819,23.563839,23.57289,23.577494,23.585909,23.592943,23.602339,23.60911,23.618319,23.625828,23.635979,23.64468,23.65298,23.659737,23.665997,23.671932,23.676758,23.681664,23.684986,23.68878,23.691442,23.694283,23.695889,23.696249,23.695166,23.692513,23.68956,23.684914,23.68062,23.67483,23.669662,23.66381,23.658077,23.651697,23.644245,23.637295,23.628021,23.61965,23.608791,23.600895,23.590155,23.58259,23.571413,23.563332,23.551502,23.542921,23.529465,23.518396,23.502893,23.489714,23.473234,23.458048,23.43978,23.422398,23.40729,23.393087,23.382227,23.36978,23.35918,23.348478,23.343363,23.336273,23.330925,23.323824,23.319199,23.315462,23.314972,23.315767,23.317476,23.318377,23.316853,23.312645,23.302824,23.289244,23.266132,23.239933,23.204336,23.176767,23.138203,23.129438,23.105024,23.33522,21.781963,19.362398,15.868702,13.333343,11.729387,11.873074
18.203362,21.55311,23.408197,23.642628,23.322332,23.340054,23.353407,23.363722,23.371435,23.372698,23.371914,23.369297,23.372578,23.379793,23.392157,23.404646,23.421791,23.437185,23.454712,23.469276,23.482117,23.493677,23.504519,23.516356,23.52522,23.537125,23.54707,23.559607,23.5679,23.57734,23.582214,23.590906,23.598053,23.607536,23.614307,23.623516,23.631006,23.641111,23.649742,23.65796,23.664621,23.670792,23.676579,23.68124,23.685877,23.688955,23.692434,23.694887,23.697428,23.698818,23.698914,23.697674,23.694813,23.691736,23.686928,23.68254,23.676657,23.671448,23.665543,23.659805,23.653482,23.646122,23.63922,23.62998,23.621624,23.610798,23.602957,23.592272,23.584703,23.573593,23.565609,23.553974,23.54558,23.532335,23.521406,23.506111,23.493114,23.476875,23.461906,23.443857,23.426718,23.4119,23.398073,23.387545,23.375511,23.365223,23.354961,23.350172,23.343615,23.3387,23.332277,23.328175,23.325191,23.325245,23.326809,23.32909,23.330626,23.329546,23.325848,23.316496,23.303415,23.280918,23.255304,23.220623,23.193933,23.156801,23.149946,23.124056,23.347635,21.79804,19.386831,15.970848,13.5341215,11.981156,12.110018
18.247145,21.572958,23.409744,23.643362,23.32575,23.341902,23.35337,23.36267,23.369831,23.37131,23.370756,23.36827,23.371717,23.379026,23.39148,23.404007,23.421265,23.436777,23.45442,23.469116,23.48212,23.49389,23.504925,23.51701,23.526093,23.538301,23.548494,23.561342,23.569838,23.57957,23.584665,23.593575,23.60081,23.610382,23.617176,23.626434,23.633945,23.644062,23.65268,23.660883,23.667515,23.67367,23.6794,23.683983,23.688488,23.691442,23.694756,23.697102,23.699488,23.700764,23.700714,23.699377,23.696396,23.693232,23.688322,23.683876,23.677929,23.672682,23.66674,23.661005,23.65473,23.64743,23.640554,23.631329,23.622972,23.612154,23.604342,23.593662,23.58607,23.574982,23.567049,23.555546,23.547281,23.534195,23.523375,23.508253,23.495415,23.479383,23.464611,23.446762,23.429852,23.415295,23.401798,23.391558,23.379887,23.369871,23.359978,23.35545,23.349314,23.344725,23.338825,23.335127,23.332714,23.333183,23.335335,23.338049,23.340067,23.339306,23.335962,23.326918,23.31417,23.292109,23.266941,23.232944,23.20689,23.170753,23.165257,23.137905,23.355606,21.811407,19.41142,16.05566,13.691024,12.176779,12.296301
18.29194,21.592264,23.413328,23.64609,23.330591,23.344307,23.353186,23.361408,23.368036,23.369764,23.369514,23.367222,23.370905,23.37836,23.390944,23.403536,23.42093,23.436596,23.45442,23.469315,23.482569,23.49463,23.505915,23.518324,23.527699,23.5403,23.55079,23.564024,23.572762,23.582882,23.588291,23.597525,23.6049,23.614632,23.621489,23.63085,23.638424,23.648577,23.65719,23.665398,23.672028,23.678183,23.683887,23.688435,23.692848,23.695715,23.698917,23.701183,23.70346,23.704664,23.704517,23.703115,23.700037,23.696798,23.691822,23.687355,23.681385,23.676151,23.670233,23.664576,23.658445,23.65131,23.644531,23.635384,23.627071,23.616299,23.608532,23.597857,23.590216,23.579136,23.571253,23.559885,23.551765,23.53886,23.528173,23.513271,23.500643,23.484875,23.47035,23.452755,23.436123,23.421879,23.408743,23.398794,23.387466,23.377724,23.36817,23.363863,23.358086,23.353773,23.348377,23.345102,23.34326,23.344137,23.346853,23.349993,23.352495,23.352068,23.349054,23.340298,23.32784,23.30629,23.281857,23.248806,23.22351,23.188204,23.184,23.153442,23.362185,21.822546,19.43498,16.15458,13.881846,12.421251,12.534632
18.3209,21.604319,23.41655,23.648668,23.334145,23.34582,23.352718,23.360327,23.36671,23.368628,23.36864,23.366549,23.370483,23.3781,23.390852,23.403534,23.421078,23.436882,23.454878,23.469961,23.483435,23.495733,23.507198,23.519838,23.52943,23.542315,23.553009,23.5665,23.575407,23.58583,23.591492,23.601002,23.608511,23.618393,23.625324,23.634794,23.642433,23.652628,23.661247,23.669477,23.676125,23.682295,23.688013,23.692562,23.696968,23.699816,23.702995,23.705246,23.707506,23.708696,23.70853,23.707123,23.704,23.700724,23.695734,23.691282,23.685347,23.68016,23.674316,23.668764,23.662804,23.655853,23.649204,23.640165,23.631924,23.62122,23.613491,23.602825,23.595148,23.58406,23.576204,23.56492,23.556892,23.544104,23.533516,23.518776,23.506302,23.490719,23.476357,23.458937,23.442486,23.428444,23.415506,23.405684,23.394495,23.384867,23.375437,23.371197,23.365532,23.36131,23.356146,23.35311,23.35157,23.352646,23.355652,23.359009,23.361782,23.361553,23.358728,23.350136,23.337816,23.316648,23.292906,23.260647,23.235867,23.200869,23.19734,23.163542,23.36489,21.825987,19.444551,16.217634,14.012735,12.594309,12.706713
18.336138,21.607035,23.421392,23.653465,23.338655,23.347761,23.352308,23.359377,23.365665,23.367863,23.36827,23.366463,23.370758,23.3786,23.391575,23.404366,23.42209,23.438072,23.456291,23.471617,23.485392,23.49802,23.50975,23.522728,23.532625,23.5459,23.55688,23.570723,23.579836,23.590628,23.59661,23.606451,23.61411,23.624151,23.63115,23.640717,23.64841,23.658627,23.667225,23.67544,23.68207,23.688223,23.693913,23.698433,23.702778,23.705559,23.708647,23.710838,23.713037,23.714197,23.714,23.712584,23.709444,23.70616,23.701199,23.696796,23.690928,23.68582,23.680069,23.67465,23.668898,23.662169,23.655684,23.646784,23.638647,23.62804,23.620378,23.609745,23.60204,23.590961,23.583147,23.571968,23.564053,23.551414,23.54094,23.526392,23.514097,23.498741,23.484583,23.467392,23.451185,23.437424,23.424784,23.415176,23.404238,23.394823,23.38562,23.381495,23.376015,23.371918,23.367064,23.364334,23.363161,23.364464,23.367805,23.371414,23.374483,23.374443,23.371752,23.363264,23.35104,23.330288,23.307358,23.276058,23.251995,23.217352,23.214584,23.17633,23.367863,21.829353,19.455109,16.299986,14.187136,12.826036,12.937616
18.329979,21.59948,23.42491,23.657543,23.341467,23.348976,23.352146,23.359034,23.365414,23.367832,23.36854,23.366932,23.371487,23.379488,23.392612,23.405468,23.423307,23.439398,23.457756,23.473246,23.487225,23.500084,23.51201,23.525229,23.535343,23.548887,23.560081,23.574158,23.583395,23.594408,23.60059,23.610628,23.618366,23.628475,23.635485,23.645077,23.652777,23.662973,23.67153,23.679699,23.686281,23.692398,23.698036,23.702505,23.706774,23.70947,23.712456,23.714579,23.716707,23.71783,23.71761,23.71618,23.71306,23.709803,23.704887,23.700537,23.694729,23.68968,23.683987,23.678648,23.673012,23.666409,23.660019,23.651213,23.64314,23.632607,23.624994,23.614391,23.606684,23.595615,23.587828,23.576721,23.568874,23.556332,23.54593,23.531492,23.519299,23.504076,23.490051,23.473013,23.456982,23.443419,23.43101,23.42159,23.410883,23.401659,23.39267,23.388659,23.383335,23.379349,23.374723,23.372202,23.371265,23.372704,23.376257,23.380024,23.383245,23.383278,23.380592,23.372097,23.35988,23.339344,23.316862,23.286142,23.262573,23.228157,23.22582,23.18454,23.369572,21.83104,19.46105,16.354572,14.304661,12.982593,13.093621
18.313963,21.584776,23.430506,23.664036,23.345644,23.351196,23.352804,23.359661,23.366241,23.368856,23.369871,23.368496,23.37333,23.381495,23.394733,23.40761,23.42554,23.441748,23.460253,23.475937,23.490187,23.503378,23.515594,23.529179,23.539608,23.55354,23.565023,23.579426,23.588833,23.60014,23.606577,23.616884,23.624756,23.63501,23.642082,23.651777,23.659548,23.669796,23.678358,23.68652,23.693054,23.699112,23.70465,23.709038,23.713144,23.715673,23.718437,23.720415,23.722374,23.723396,23.723064,23.721586,23.718441,23.71521,23.710344,23.70605,23.700329,23.695358,23.68976,23.684523,23.67902,23.672571,23.66631,23.657656,23.64972,23.63934,23.63184,23.621363,23.613724,23.602768,23.595057,23.584066,23.576307,23.563885,23.55358,23.539267,23.527182,23.512098,23.49821,23.481346,23.46552,23.452177,23.440031,23.430834,23.420399,23.411406,23.402649,23.398754,23.39358,23.389685,23.385262,23.382925,23.382198,23.383753,23.387493,23.391413,23.394814,23.394949,23.3923,23.383825,23.371655,23.3514,23.329435,23.299438,23.276562,23.242546,23.240875,23.195724,23.372162,21.834085,19.470327,16.430696,14.466897,13.19762,13.307326
18.295116,21.570255,23.435051,23.669376,23.34882,23.353233,23.354027,23.361034,23.367828,23.370504,23.371655,23.370409,23.375381,23.383617,23.396875,23.40972,23.42767,23.443933,23.462507,23.478306,23.492725,23.506155,23.518597,23.532448,23.543102,23.55731,23.568995,23.58361,23.593134,23.604633,23.611227,23.621723,23.629696,23.640074,23.647219,23.657024,23.66488,23.675215,23.683819,23.692005,23.69851,23.704517,23.709965,23.714273,23.718233,23.720598,23.723156,23.724997,23.726786,23.727701,23.727243,23.7257,23.722511,23.71929,23.714455,23.710203,23.704535,23.699621,23.694096,23.688927,23.683493,23.677124,23.670938,23.662405,23.654587,23.644358,23.636961,23.626621,23.619085,23.608263,23.600637,23.589739,23.582022,23.56968,23.559435,23.545195,23.533154,23.518133,23.504316,23.48755,23.471846,23.458612,23.446606,23.437538,23.427263,23.418407,23.409775,23.405931,23.400806,23.396933,23.392561,23.390278,23.3896,23.391182,23.394976,23.39894,23.402418,23.402624,23.400003,23.391554,23.379423,23.359339,23.33764,23.308077,23.285679,23.252003,23.250814,23.20333,23.37433,21.837082,19.477882,16.483843,14.578462,13.344713,13.453331
18.25965,21.545713,23.442825,23.678782,23.35463,23.357542,23.357225,23.364397,23.371447,23.374214,23.37557,23.374517,23.37972,23.388094,23.40145,23.414303,23.43234,23.448713,23.467417,23.483397,23.49805,23.511778,23.524485,23.538654,23.549568,23.564104,23.576035,23.590923,23.600584,23.612314,23.619099,23.62981,23.637892,23.648375,23.655552,23.665415,23.673294,23.68363,23.692196,23.700321,23.706718,23.71259,23.717861,23.722044,23.725805,23.727974,23.730286,23.731958,23.733564,23.734383,23.733818,23.732225,23.729038,23.725878,23.72112,23.716942,23.711372,23.706545,23.701109,23.69601,23.690619,23.684298,23.678164,23.669718,23.661991,23.651867,23.644535,23.634285,23.626816,23.616085,23.60852,23.597689,23.590004,23.57775,23.567598,23.55347,23.541527,23.526642,23.512974,23.496403,23.480904,23.467865,23.456081,23.447216,23.437181,23.428518,23.420063,23.416286,23.41123,23.407387,23.403072,23.400843,23.400206,23.401796,23.405607,23.409582,23.413092,23.413305,23.410625,23.402113,23.389927,23.369982,23.348595,23.3196,23.297825,23.264671,23.263842,23.214855,23.381454,21.848213,19.496462,16.56128,14.729796,13.542732,13.652008
18.22464,21.523182,23.450174,23.68776,23.360346,23.362299,23.361267,23.368544,23.375761,23.378595,23.3801,23.379185,23.384583,23.39308,23.40655,23.419453,23.437588,23.454063,23.472895,23.489017,23.503843,23.517765,23.530647,23.54502,23.55609,23.570822,23.582912,23.597975,23.60772,23.619593,23.626492,23.637327,23.645475,23.655987,23.663149,23.672985,23.680822,23.69109,23.69957,23.707586,23.713854,23.719572,23.724678,23.72874,23.732344,23.734371,23.736506,23.738058,23.739542,23.740303,23.739685,23.738068,23.734911,23.731815,23.727135,23.723015,23.71752,23.712746,23.707367,23.702286,23.696875,23.69052,23.684376,23.67594,23.668232,23.658125,23.65079,23.640547,23.633093,23.622383,23.614834,23.604012,23.596327,23.584122,23.574043,23.560003,23.548143,23.533379,23.519844,23.50345,23.488138,23.475258,23.463648,23.454948,23.445105,23.436588,23.428257,23.42452,23.41949,23.415667,23.41136,23.409124,23.408459,23.410007,23.41375,23.417665,23.421095,23.421228,23.418407,23.409763,23.397463,23.377522,23.356218,23.327564,23.30627,23.273613,23.272846,23.224083,23.389772,21.861889,19.516846,16.622538,14.840909,13.687507,13.799876
18.183483,21.49681,23.46019,23.699652,23.368279,23.369177,23.367311,23.37461,23.381948,23.384855,23.386518,23.385757,23.391376,23.400042,23.41366,23.42663,23.444914,23.46154,23.480556,23.496866,23.5119,23.526054,23.539152,23.553759,23.565008,23.579962,23.59223,23.607487,23.617334,23.62937,23.636402,23.647377,23.65559,23.666136,23.673265,23.683065,23.690855,23.701044,23.709425,23.717316,23.723429,23.72898,23.733892,23.737814,23.741217,23.743057,23.744965,23.74636,23.747671,23.748337,23.747616,23.745955,23.742802,23.739761,23.735132,23.731045,23.725592,23.720837,23.71546,23.710346,23.704863,23.698425,23.692244,23.683794,23.676102,23.666014,23.658674,23.648449,23.64103,23.63035,23.62282,23.61201,23.60433,23.592186,23.582184,23.56823,23.556446,23.541801,23.528416,23.512217,23.497118,23.484413,23.473015,23.464542,23.454956,23.446625,23.438448,23.434769,23.429785,23.425978,23.421654,23.419378,23.418617,23.420055,23.423632,23.42739,23.430609,23.43055,23.427456,23.418592,23.40616,23.38616,23.364643,23.336214,23.315672,23.28384,23.283226,23.234818,23.399538,21.877798,19.540302,16.693403,14.969941,13.860337,13.982142
18.152046,21.476458,23.469143,23.710032,23.375706,23.376173,23.37395,23.381227,23.388624,23.39161,23.39342,23.392792,23.398615,23.407436,23.421206,23.434254,23.452684,23.469456,23.488636,23.505095,23.520277,23.534573,23.547802,23.562548,23.573889,23.588963,23.601334,23.616707,23.62662,23.638762,23.645876,23.656946,23.665197,23.67575,23.68285,23.6926,23.700338,23.710455,23.718744,23.726519,23.732487,23.73789,23.74263,23.746414,23.749634,23.75131,23.75301,23.75426,23.75539,23.755943,23.755098,23.753365,23.750166,23.747126,23.742487,23.73839,23.73292,23.728136,23.722715,23.717535,23.711946,23.705406,23.69916,23.690674,23.682985,23.672903,23.665565,23.65536,23.647978,23.637335,23.629812,23.619009,23.611328,23.599224,23.589277,23.575378,23.563635,23.549076,23.535795,23.51975,23.504816,23.492224,23.48097,23.472662,23.46326,23.455057,23.44697,23.4433,23.43831,23.434498,23.43012,23.427767,23.426853,23.428143,23.431496,23.435055,23.438,23.437695,23.434296,23.425201,23.412668,23.392525,23.370504,23.342047,23.322243,23.291252,23.290668,23.242962,23.407429,21.893122,19.564888,16.756453,15.077255,14.002689,14.1336155
18.126596,21.458605,23.477753,23.719883,23.383272,23.383682,23.38142,23.38873,23.396238,23.399345,23.401371,23.400932,23.407011,23.416008,23.429949,23.443092,23.46168,23.47859,23.49793,23.514528,23.529846,23.544266,23.5576,23.57245,23.583862,23.599037,23.6115,23.62699,23.636974,23.649237,23.656452,23.667637,23.675953,23.686548,23.693636,23.70337,23.711071,23.72113,23.729343,23.737011,23.742825,23.74805,23.752571,23.756182,23.75918,23.760677,23.762121,23.763172,23.76407,23.764488,23.763456,23.761604,23.758286,23.755203,23.750513,23.746391,23.740887,23.736076,23.730623,23.725391,23.719717,23.713087,23.706785,23.698288,23.69062,23.68058,23.673258,23.663107,23.655794,23.645226,23.637737,23.626947,23.61925,23.607178,23.59729,23.583435,23.571728,23.557238,23.544052,23.52815,23.513365,23.500862,23.489697,23.4815,23.472221,23.464111,23.456049,23.452326,23.44727,23.443432,23.43897,23.436531,23.435453,23.436594,23.43973,23.443104,23.445795,23.445263,23.441595,23.43229,23.41967,23.39936,23.376766,23.348213,23.329151,23.298964,23.298265,23.251158,23.414988,21.910292,19.594652,16.832268,15.204516,14.1645775,14.298148
18.105448,21.442577,23.485603,23.728706,23.390553,23.391752,23.390192,23.39762,23.405313,23.408604,23.410915,23.410692,23.41706,23.426258,23.440407,23.453661,23.472395,23.489407,23.50886,23.525532,23.540897,23.555319,23.568624,23.583427,23.594793,23.609932,23.622383,23.637867,23.647854,23.660145,23.667397,23.678621,23.68696,23.69754,23.704588,23.714264,23.721905,23.731878,23.739992,23.747532,23.75318,23.75821,23.7625,23.765924,23.768703,23.770033,23.77123,23.77208,23.772717,23.772976,23.771708,23.769695,23.766178,23.762981,23.758165,23.753979,23.7484,23.743538,23.738039,23.732754,23.72699,23.72028,23.713936,23.705435,23.697788,23.687796,23.680496,23.67042,23.663187,23.652699,23.645243,23.634476,23.626774,23.614742,23.604914,23.59112,23.579466,23.56506,23.551975,23.536228,23.52157,23.509127,23.497988,23.489828,23.480568,23.472477,23.464342,23.46049,23.455288,23.45139,23.446806,23.444256,23.442987,23.443958,23.446848,23.45002,23.452425,23.45165,23.447708,23.438204,23.42554,23.405027,23.381664,23.352867,23.334608,23.30527,23.30427,23.257807,23.42026,21.932793,19.642145,16.927279,15.341331,14.3271885,14.458863
18.084368,21.426926,23.493116,23.737083,23.397497,23.399843,23.399288,23.406862,23.414762,23.418255,23.42085,23.420816,23.42748,23.436886,23.451273,23.464655,23.483532,23.50062,23.520163,23.536858,23.552206,23.56653,23.57972,23.594345,23.605574,23.620548,23.63289,23.648243,23.658138,23.670324,23.677523,23.688673,23.696953,23.707417,23.71435,23.723885,23.731411,23.741234,23.7492,23.75657,23.762035,23.766878,23.770971,23.774239,23.77684,23.778055,23.77908,23.77978,23.780214,23.780329,23.778866,23.776724,23.773026,23.76971,23.764757,23.7605,23.754843,23.74994,23.744379,23.739035,23.73318,23.72639,23.720015,23.711504,23.703848,23.693857,23.686565,23.67652,23.669333,23.658869,23.651405,23.640633,23.632935,23.620945,23.611174,23.597466,23.585897,23.571611,23.558657,23.54308,23.528557,23.516182,23.505064,23.49692,23.48764,23.47953,23.471289,23.467287,23.461912,23.457928,23.453188,23.450516,23.449028,23.449814,23.452425,23.455357,23.45744,23.456398,23.452148,23.442421,23.429708,23.408989,23.384825,23.355772,23.338318,23.309889,23.308655,23.26287,23.423412,21.957047,19.69815,17.026777,15.470826,14.475258,14.60467
18.054676,21.404955,23.500484,23.745518,23.404305,23.408632,23.409872,23.417786,23.426046,23.429811,23.432783,23.432987,23.439981,23.449606,23.464224,23.47771,23.49667,23.513763,23.533323,23.54997,23.565207,23.579332,23.592306,23.60667,23.617693,23.632439,23.64463,23.659811,23.669601,23.681675,23.688814,23.699884,23.708115,23.718462,23.725277,23.73468,23.742107,23.751793,23.759619,23.766813,23.772085,23.776733,23.780607,23.783684,23.786064,23.787119,23.787905,23.788399,23.788528,23.788414,23.786633,23.784275,23.780262,23.776733,23.771532,23.767138,23.76134,23.756365,23.750713,23.74529,23.739336,23.732485,23.726099,23.717613,23.70998,23.700043,23.692806,23.682877,23.6758,23.665447,23.658033,23.647335,23.639694,23.627821,23.618149,23.604578,23.59313,23.579004,23.566204,23.550825,23.536448,23.524132,23.512993,23.504822,23.495466,23.4873,23.478895,23.4747,23.469131,23.465075,23.460209,23.457436,23.45576,23.45638,23.458729,23.461437,23.463198,23.461887,23.457357,23.447464,23.434809,23.413889,23.3887,23.359276,23.342855,23.315453,23.31355,23.268457,23.42583,21.99343,19.787025,17.16424,15.6259775,14.643048,14.770914
18.028896,21.385918,23.50543,23.751408,23.40894,23.414984,23.4178,23.426058,23.434668,23.438677,23.441967,23.442375,23.449621,23.459383,23.474125,23.487638,23.506605,23.523657,23.543175,23.559753,23.574879,23.58885,23.601665,23.615854,23.626743,23.641361,23.653477,23.668596,23.678362,23.690418,23.697557,23.70864,23.716883,23.727205,23.733973,23.743343,23.750744,23.760397,23.76817,23.775269,23.780413,23.78494,23.788643,23.791557,23.793716,23.794603,23.79512,23.795397,23.795189,23.794828,23.792698,23.790092,23.785744,23.781982,23.776516,23.77197,23.766014,23.760956,23.755207,23.749725,23.743696,23.736816,23.730444,23.722025,23.71444,23.70461,23.697477,23.687723,23.680801,23.670635,23.66332,23.652763,23.645216,23.633478,23.623905,23.61045,23.599085,23.58506,23.572351,23.557102,23.542809,23.530512,23.519331,23.511114,23.501684,23.493471,23.48494,23.480593,23.474895,23.470816,23.46591,23.4631,23.461346,23.461882,23.46411,23.4667,23.468277,23.466806,23.46214,23.452194,23.439669,23.418617,23.392538,23.362745,23.347197,23.320524,23.31779,23.273106,23.42768,22.02559,19.866373,17.280628,15.749187,14.7733135,14.901486
17.984533,21.353628,23.510088,23.757399,23.412788,23.421612,23.427021,23.435884,23.445024,23.449305,23.452974,23.453642,23.461178,23.471083,23.48594,23.499454,23.518368,23.535307,23.554703,23.571127,23.586058,23.599777,23.612347,23.62627,23.636974,23.651423,23.663435,23.678482,23.688232,23.700302,23.707476,23.71861,23.726898,23.73723,23.743973,23.753338,23.760735,23.77037,23.77809,23.785093,23.790089,23.79446,23.797953,23.800665,23.802563,23.80326,23.803474,23.803493,23.802906,23.80226,23.799725,23.796824,23.792072,23.788036,23.782259,23.777542,23.77141,23.766266,23.760431,23.754894,23.748793,23.741882,23.73553,23.727192,23.71968,23.710005,23.703009,23.693495,23.686785,23.67688,23.669718,23.65937,23.651966,23.640436,23.631025,23.617788,23.60659,23.592768,23.580233,23.56521,23.551079,23.53883,23.527605,23.51933,23.5098,23.501526,23.492847,23.488317,23.482504,23.478453,23.47357,23.470772,23.468988,23.469473,23.471611,23.474108,23.475512,23.473896,23.469135,23.45921,23.446924,23.42583,23.398846,23.368761,23.354342,23.328518,23.32446,23.28028,23.430553,22.074646,19.98799,17.447971,15.911701,14.939108,15.070232
17.947012,21.326168,23.512207,23.760485,23.414131,23.425377,23.433037,23.442394,23.45192,23.456366,23.460287,23.461134,23.468868,23.478867,23.493801,23.507309,23.526163,23.543001,23.562283,23.57857,23.593336,23.606855,23.619217,23.632927,23.643486,23.6578,23.669731,23.684729,23.69447,23.706562,23.713772,23.724962,23.733288,23.743643,23.750387,23.759756,23.767162,23.77678,23.78446,23.791395,23.796286,23.800537,23.803871,23.806446,23.808182,23.808779,23.808828,23.808699,23.8079,23.807106,23.804338,23.801266,23.796278,23.79208,23.786129,23.781324,23.775108,23.769934,23.764069,23.758518,23.752369,23.745434,23.739084,23.730793,23.723331,23.71375,23.70684,23.697487,23.690912,23.681185,23.674131,23.663935,23.656626,23.64525,23.635965,23.622923,23.611895,23.598274,23.585909,23.57111,23.557137,23.544952,23.53371,23.525396,23.515802,23.507486,23.498714,23.494059,23.488186,23.484182,23.479355,23.47659,23.474821,23.475288,23.477396,23.479849,23.481167,23.479477,23.474688,23.464804,23.452717,23.431673,23.404222,23.37406,23.360426,23.335117,23.329964,23.286171,23.433119,22.113855,20.084948,17.576914,16.03078,15.057975,15.1926
17.881073,21.280684,23.51641,23.766441,23.416323,23.430532,23.441126,23.45138,23.461578,23.466204,23.47042,23.47149,23.479464,23.489561,23.504547,23.518005,23.53673,23.55338,23.572454,23.588497,23.60298,23.616165,23.628212,23.641592,23.651918,23.666012,23.67781,23.692715,23.702438,23.714544,23.721796,23.733055,23.741434,23.751816,23.758553,23.767935,23.775352,23.784967,23.792614,23.799473,23.804241,23.808363,23.811522,23.81393,23.815466,23.815926,23.815752,23.815428,23.814333,23.813326,23.810226,23.806913,23.801594,23.79717,23.790966,23.78602,23.77967,23.774439,23.76853,23.762964,23.756763,23.749805,23.74349,23.735283,23.727898,23.718458,23.71167,23.702532,23.696144,23.686666,23.679768,23.669798,23.66265,23.651527,23.64245,23.62972,23.61896,23.60565,23.593546,23.579058,23.565302,23.553213,23.541956,23.533592,23.523912,23.515537,23.506649,23.50185,23.49594,23.492035,23.487312,23.484608,23.482887,23.483355,23.48543,23.487818,23.488997,23.48719,23.482365,23.47258,23.460781,23.439878,23.411924,23.381838,23.36938,23.345016,23.338657,23.295425,23.436884,22.171982,20.229612,17.764885,16.197678,15.221281,15.361993
17.825336,21.243841,23.52032,23.77191,23.418242,23.434238,23.446732,23.457739,23.468502,23.473228,23.477627,23.478842,23.486961,23.497118,23.512114,23.525503,23.5441,23.560595,23.579483,23.595327,23.609568,23.622482,23.634277,23.647406,23.657541,23.671457,23.683153,23.697973,23.707678,23.719786,23.727049,23.738346,23.746763,23.75716,23.763885,23.773277,23.780706,23.790337,23.797977,23.804802,23.809505,23.813568,23.81664,23.818956,23.820366,23.82073,23.820396,23.819937,23.818626,23.817455,23.814112,23.810616,23.805052,23.800463,23.794056,23.788998,23.782534,23.777256,23.771313,23.765732,23.759502,23.752542,23.746265,23.738136,23.730814,23.72148,23.714779,23.705788,23.699526,23.69022,23.683437,23.673637,23.666622,23.655703,23.646797,23.634308,23.623745,23.610674,23.598757,23.584484,23.570875,23.558847,23.547575,23.539179,23.529428,23.521006,23.51204,23.507166,23.501255,23.497429,23.492805,23.490149,23.488476,23.488958,23.491009,23.493336,23.494392,23.49249,23.487637,23.47793,23.46634,23.445564,23.417316,23.38738,23.37581,23.352268,23.345278,23.302498,23.439613,22.215067,20.337402,17.902157,16.315224,15.334044,15.479794
17.75136,21.195236,23.526972,23.780102,23.420902,23.438797,23.453634,23.465897,23.477509,23.482203,23.486656,23.48796,23.496138,23.506273,23.521175,23.534426,23.552807,23.569084,23.587748,23.60337,23.617336,23.629948,23.641466,23.654308,23.664238,23.677948,23.689508,23.704235,23.71393,23.726063,23.73337,23.744726,23.753197,23.763613,23.77032,23.779703,23.787115,23.79671,23.804277,23.81099,23.815548,23.819473,23.822374,23.82453,23.82574,23.825964,23.825432,23.824814,23.823275,23.821938,23.81834,23.814667,23.808867,23.804136,23.79754,23.792368,23.785788,23.780457,23.77448,23.768894,23.762627,23.75566,23.749426,23.741398,23.734175,23.724993,23.718416,23.709631,23.70354,23.694471,23.687855,23.678297,23.671448,23.660807,23.65214,23.639997,23.629736,23.617018,23.605412,23.591516,23.578201,23.56635,23.55516,23.546806,23.537073,23.528675,23.519686,23.514719,23.508831,23.505138,23.500664,23.498085,23.496487,23.497002,23.499088,23.501429,23.502422,23.500473,23.495682,23.486183,23.474957,23.454575,23.426334,23.396957,23.386614,23.364288,23.356943,23.314083,23.443686,22.271666,20.480024,18.087923,16.480251,15.495706,15.647637
17.702477,21.163319,23.532526,23.786257,23.42275,23.441544,23.457815,23.471117,23.483372,23.48793,23.49228,23.493574,23.501684,23.51174,23.526508,23.539627,23.557835,23.57397,23.592499,23.608007,23.621828,23.634275,23.645647,23.658335,23.668156,23.681747,23.693216,23.707884,23.717579,23.729738,23.737083,23.748487,23.756983,23.767412,23.7741,23.783459,23.790834,23.800352,23.807821,23.81441,23.818832,23.822632,23.825384,23.827398,23.828457,23.82858,23.827925,23.82722,23.82557,23.824156,23.820456,23.816704,23.810822,23.806046,23.799389,23.794165,23.787529,23.782167,23.776182,23.7706,23.764303,23.757332,23.75112,23.743164,23.736021,23.726957,23.720467,23.711819,23.705843,23.696941,23.690445,23.68105,23.67431,23.663864,23.655363,23.643476,23.63344,23.620995,23.60963,23.596056,23.583014,23.57135,23.56029,23.552029,23.542389,23.534077,23.52512,23.520105,23.514246,23.510662,23.5063,23.503777,23.502235,23.502771,23.50493,23.507341,23.50837,23.506445,23.501757,23.492474,23.48156,23.461607,23.433693,23.404966,23.395475,23.374073,23.366894,23.323503,23.446804,22.308876,20.574444,18.2139,16.596395,15.611794,15.767507
17.65044,21.127558,23.539608,23.79347,23.425238,23.445654,23.464231,23.478956,23.492163,23.49664,23.501022,23.50242,23.510612,23.520676,23.535414,23.548466,23.566563,23.582577,23.600994,23.616377,23.630018,23.642233,23.653374,23.665794,23.675425,23.688776,23.70004,23.714516,23.72413,23.736217,23.743538,23.754894,23.763346,23.773695,23.780306,23.789568,23.79686,23.806238,23.813553,23.819963,23.824202,23.827839,23.830397,23.832226,23.833076,23.833067,23.832243,23.831415,23.8296,23.828077,23.824224,23.820366,23.814363,23.809517,23.80275,23.797434,23.790691,23.785267,23.779238,23.773636,23.767286,23.760296,23.754107,23.74625,23.739216,23.730316,23.72394,23.71548,23.70965,23.700966,23.694637,23.685455,23.678856,23.668655,23.660381,23.648829,23.639091,23.626995,23.615946,23.602768,23.590067,23.578634,23.56772,23.559563,23.549995,23.54175,23.532787,23.52768,23.521797,23.518284,23.513977,23.51146,23.509884,23.51037,23.512493,23.514893,23.515852,23.513893,23.50927,23.500227,23.489664,23.470299,23.442936,23.415188,23.406752,23.386667,23.379972,23.336422,23.452162,22.357847,20.695885,18.378513,16.752916,15.770871,15.931265
17.624208,21.107534,23.544601,23.79786,23.42686,23.448637,23.469072,23.484846,23.498775,23.50324,23.507715,23.509241,23.517567,23.527687,23.542486,23.555553,23.573643,23.589622,23.608019,23.623352,23.6369,23.64896,23.659937,23.672155,23.681639,23.694782,23.705856,23.720127,23.729641,23.741615,23.748877,23.76013,23.768497,23.778723,23.785244,23.794394,23.801596,23.810833,23.81802,23.82429,23.82839,23.831907,23.83433,23.836021,23.836712,23.8366,23.835646,23.834723,23.832777,23.831171,23.827204,23.823273,23.81719,23.812302,23.80545,23.80006,23.793236,23.787754,23.781689,23.776064,23.769665,23.76266,23.756496,23.748724,23.741781,23.733013,23.726734,23.71842,23.712696,23.704182,23.697979,23.688965,23.68248,23.672466,23.66436,23.653057,23.643543,23.63171,23.620895,23.608007,23.595556,23.584305,23.573515,23.565441,23.555944,23.547747,23.538778,23.53361,23.52769,23.5242,23.519886,23.517338,23.51568,23.516077,23.518105,23.520441,23.5213,23.519289,23.514671,23.505772,23.495413,23.47651,23.44973,23.422838,23.4151,23.396051,23.389996,23.346567,23.456911,22.393562,20.78294,18.498398,16.870142,15.891779,16.05545
17.59252,21.082523,23.549982,23.802387,23.42791,23.451172,23.473629,23.490467,23.505121,23.509565,23.51409,23.515696,23.524092,23.534237,23.54904,23.562082,23.580122,23.596054,23.614439,23.629751,23.643227,23.655165,23.66601,23.678072,23.68745,23.70044,23.711359,23.725489,23.734957,23.746878,23.75411,23.765295,23.773603,23.783737,23.79019,23.799242,23.806364,23.815485,23.822557,23.828701,23.832676,23.836082,23.838358,23.839891,23.840378,23.840109,23.838945,23.837877,23.83572,23.833961,23.829798,23.825748,23.819544,23.814602,23.807642,23.802168,23.795263,23.789747,23.783663,23.778046,23.771626,23.764637,23.758549,23.75092,23.74411,23.735535,23.7294,23.7213,23.715752,23.707489,23.70147,23.692713,23.686407,23.676676,23.668793,23.657816,23.648579,23.637081,23.626558,23.614029,23.601896,23.590895,23.580318,23.57242,23.563095,23.555035,23.546175,23.541023,23.535183,23.5318,23.527578,23.525055,23.523392,23.523748,23.52574,23.528048,23.528837,23.526783,23.52217,23.513409,23.50323,23.484827,23.45876,23.432928,23.426014,23.4082,23.402899,23.359285,23.461634,22.44207,20.90485,18.66053,17.019312,16.041159,16.210318
17.581593,21.069864,23.553995,23.804827,23.428196,23.452532,23.47643,23.493916,23.508963,23.513336,23.517809,23.519403,23.527771,23.537891,23.552658,23.565674,23.583673,23.599586,23.618002,23.633362,23.646849,23.658762,23.669563,23.681576,23.690937,23.703865,23.714699,23.728764,23.738224,23.750137,23.75737,23.768517,23.776772,23.786839,23.793236,23.802208,23.80925,23.818264,23.825228,23.831266,23.835148,23.838465,23.840622,23.842028,23.84235,23.841946,23.840612,23.839424,23.837097,23.835205,23.83089,23.826763,23.82049,23.815536,23.808527,23.803009,23.796085,23.790583,23.784527,23.778944,23.77254,23.765602,23.759607,23.752125,23.745436,23.73703,23.731028,23.723127,23.717735,23.70971,23.70386,23.695358,23.689247,23.679792,23.672125,23.661451,23.65247,23.641287,23.631042,23.61884,23.607014,23.596273,23.585955,23.578264,23.569168,23.561287,23.552603,23.547527,23.541813,23.538542,23.534431,23.53195,23.530313,23.53066,23.532644,23.53494,23.5357,23.533638,23.529028,23.520346,23.510242,23.49222,23.46682,23.441916,23.435621,23.41875,23.414078,23.370306,23.466095,22.48214,21.00458,18.794483,17.144829,16.16803,16.341488
17.582914,21.064215,23.559647,23.808119,23.42969,23.455042,23.480345,23.498417,23.513737,23.517918,23.5222,23.523708,23.531958,23.541994,23.55669,23.569681,23.587631,23.603537,23.62202,23.637468,23.65101,23.662935,23.673706,23.685669,23.695026,23.707884,23.718592,23.732523,23.741934,23.753798,23.761017,23.77207,23.780216,23.790157,23.796463,23.8053,23.812208,23.821014,23.827784,23.833637,23.837357,23.840517,23.8425,23.843744,23.843891,23.843378,23.841919,23.840643,23.838207,23.836245,23.83187,23.82772,23.821457,23.816532,23.80953,23.804,23.797096,23.791626,23.785612,23.780075,23.773691,23.766808,23.7609,23.753551,23.746973,23.738728,23.732855,23.72515,23.719902,23.712112,23.706438,23.698215,23.692316,23.683176,23.67576,23.665457,23.656796,23.646004,23.636114,23.624338,23.612915,23.602522,23.592527,23.585087,23.576248,23.568565,23.560034,23.554995,23.549324,23.546095,23.542015,23.53953,23.53786,23.53816,23.540104,23.542389,23.54315,23.541115,23.53656,23.528008,23.518017,23.500444,23.475843,23.451979,23.446337,23.430445,23.426424,23.382912,23.473587,22.519634,21.091303,18.919682,17.277044,16.30901,16.484705
17.619717,21.077692,23.563354,23.807676,23.429602,23.45591,23.482508,23.500965,23.516346,23.520243,23.52426,23.525671,23.533781,23.543726,23.558363,23.571356,23.589294,23.60521,23.623774,23.63934,23.652985,23.66497,23.675745,23.687706,23.6971,23.70995,23.72059,23.73445,23.743841,23.75572,23.762972,23.773987,23.782036,23.791851,23.798058,23.806738,23.813492,23.822048,23.828585,23.83424,23.83781,23.840822,23.842653,23.843763,23.843782,23.84321,23.841696,23.840374,23.8379,23.83592,23.831573,23.82748,23.821312,23.816475,23.809565,23.804108,23.797314,23.791946,23.786043,23.780605,23.774317,23.76753,23.761738,23.754524,23.748053,23.739948,23.734184,23.726648,23.721527,23.71395,23.708456,23.700533,23.69487,23.68608,23.678944,23.66904,23.66073,23.650364,23.640862,23.62953,23.61853,23.608519,23.598892,23.591736,23.583202,23.575754,23.56745,23.56252,23.556965,23.5538,23.549791,23.547342,23.545673,23.545933,23.547802,23.550016,23.550741,23.548714,23.544165,23.535677,23.52571,23.508495,23.48465,23.461748,23.45667,23.44149,23.437778,23.394564,23.481634,22.55085,21.159594,19.026897,17.40314,16.449188,16.625332
17.672268,21.099127,23.563282,23.802298,23.425756,23.453485,23.48175,23.500502,23.51588,23.519533,23.523384,23.524807,23.5329,23.542833,23.557503,23.570553,23.58853,23.604477,23.62312,23.638775,23.652514,23.664566,23.675358,23.687338,23.696781,23.70968,23.72033,23.734228,23.74367,23.75565,23.763014,23.774075,23.782091,23.791836,23.797966,23.806528,23.813164,23.821533,23.827894,23.83343,23.836927,23.839888,23.84167,23.842716,23.842682,23.842096,23.84056,23.839222,23.836731,23.83474,23.830435,23.82641,23.82036,23.815626,23.808855,23.803501,23.796871,23.791655,23.785917,23.78062,23.774473,23.76784,23.76218,23.755116,23.748755,23.740788,23.735126,23.727743,23.722736,23.715372,23.710052,23.702429,23.69702,23.688576,23.6817,23.67218,23.664188,23.654219,23.645052,23.63408,23.623413,23.61373,23.604437,23.597542,23.589308,23.582094,23.574085,23.569366,23.564062,23.561054,23.557224,23.55488,23.553286,23.55354,23.555307,23.557377,23.557976,23.555878,23.551235,23.542707,23.53266,23.515665,23.492407,23.470274,23.465673,23.45096,23.44723,23.404009,23.487637,22.578432,21.221867,19.124279,17.516413,16.574966,16.75208
17.770533,21.14437,23.562593,23.795147,23.423288,23.451485,23.480614,23.49966,23.515015,23.51832,23.521904,23.52329,23.531294,23.541162,23.555807,23.56889,23.586866,23.602814,23.621492,23.63721,23.651041,23.663166,23.673964,23.685966,23.695475,23.708462,23.719164,23.733164,23.74269,23.754847,23.762379,23.773548,23.781544,23.79122,23.797249,23.805658,23.812128,23.82023,23.826347,23.831697,23.835073,23.837933,23.83962,23.840576,23.840466,23.839857,23.838305,23.83694,23.83444,23.832458,23.82823,23.824312,23.818432,23.813839,23.807266,23.802078,23.795685,23.790676,23.785162,23.780058,23.774118,23.76768,23.762182,23.755274,23.749014,23.741167,23.735586,23.728327,23.723404,23.716227,23.711077,23.703768,23.698639,23.690584,23.684006,23.674917,23.667292,23.657778,23.649008,23.638453,23.628172,23.618881,23.60999,23.603401,23.595535,23.588615,23.58099,23.576555,23.57159,23.568779,23.565216,23.563036,23.561588,23.561861,23.563519,23.565401,23.565851,23.563662,23.558882,23.550259,23.540066,23.52324,23.500553,23.47917,23.475065,23.460606,23.456392,23.413002,23.4934,22.606146,21.284185,19.228333,17.645473,16.72082,16.897127
17.86172,21.188036,23.563463,23.791815,23.424969,23.452179,23.480824,23.500172,23.51556,23.518518,23.521755,23.522999,23.530785,23.540503,23.555014,23.568035,23.585924,23.601816,23.62046,23.636192,23.650063,23.662228,23.673006,23.685009,23.694565,23.707619,23.718357,23.732426,23.742012,23.754307,23.761972,23.773216,23.781183,23.790798,23.796734,23.804998,23.811308,23.819157,23.82503,23.83018,23.833403,23.836103,23.837646,23.838474,23.83826,23.837603,23.836,23.8346,23.83209,23.830116,23.82596,23.822124,23.816383,23.811905,23.805496,23.800444,23.794237,23.789394,23.78406,23.779106,23.77333,23.76704,23.761663,23.754858,23.74866,23.740875,23.735334,23.72814,23.72326,23.71619,23.71114,23.704046,23.69912,23.691353,23.685003,23.676245,23.668901,23.659752,23.651302,23.641088,23.631136,23.622173,23.613611,23.607277,23.599709,23.593033,23.585714,23.581497,23.576792,23.574139,23.570793,23.56877,23.567465,23.567781,23.569407,23.5712,23.571598,23.569386,23.564533,23.555853,23.54558,23.528873,23.50657,23.485697,23.482006,23.467628,23.462765,23.419172,23.497433,22.626343,21.329401,19.307608,17.748117,16.837706,17.011913
18.006832,21.259779,23.564913,23.78721,23.428877,23.45463,23.482368,23.501928,23.517305,23.519926,23.522854,23.524002,23.53161,23.541193,23.555609,23.568623,23.586447,23.602293,23.620914,23.636671,23.650604,23.66282,23.673563,23.685543,23.695145,23.708277,23.719063,23.733213,23.742865,23.755333,23.763187,23.774542,23.782482,23.79201,23.79781,23.805864,23.811937,23.819408,23.824919,23.829752,23.832724,23.835192,23.836517,23.837168,23.836807,23.83608,23.83441,23.832958,23.830421,23.828463,23.82439,23.820665,23.815079,23.810722,23.80451,23.79963,23.793638,23.78897,23.783827,23.779043,23.773462,23.767342,23.762085,23.75537,23.749218,23.741465,23.735931,23.72875,23.723877,23.716877,23.711916,23.70504,23.700329,23.692884,23.686806,23.678444,23.67146,23.662758,23.654715,23.644953,23.635437,23.62691,23.618761,23.61271,23.605463,23.599064,23.592062,23.588043,23.583551,23.581003,23.577833,23.575947,23.57473,23.575022,23.576492,23.578089,23.57834,23.576048,23.57106,23.562279,23.551847,23.535297,23.513605,23.493443,23.49014,23.475807,23.470243,23.42654,23.502392,22.649921,21.38141,19.404493,17.879984,16.989717,17.159916
18.124514,21.319136,23.566462,23.783731,23.43235,23.457325,23.484573,23.504126,23.519445,23.521923,23.524769,23.52594,23.53353,23.543081,23.557524,23.570593,23.588444,23.604286,23.622923,23.638708,23.652706,23.664955,23.675655,23.6876,23.697222,23.710394,23.721199,23.735397,23.745075,23.75766,23.765661,23.777105,23.78503,23.794487,23.80019,23.808073,23.81396,23.821125,23.826342,23.830906,23.833675,23.83596,23.837126,23.83764,23.837175,23.836405,23.834692,23.8332,23.83064,23.828684,23.824667,23.821014,23.815504,23.8112,23.805098,23.800327,23.794458,23.78988,23.784836,23.780146,23.774687,23.768673,23.763477,23.756794,23.750662,23.742897,23.737345,23.730125,23.72522,23.718231,23.713314,23.706558,23.701975,23.694729,23.688826,23.680738,23.674011,23.665617,23.65786,23.64843,23.63924,23.631033,23.623163,23.617277,23.610197,23.60396,23.59711,23.59316,23.588707,23.586143,23.582996,23.581156,23.5799,23.580101,23.581366,23.582756,23.582832,23.580444,23.575329,23.56647,23.555883,23.53947,23.518358,23.498798,23.495659,23.481367,23.475557,23.43192,23.506062,22.666018,21.416426,19.472208,17.974846,17.09984,17.26667
18.30115,21.407103,23.565664,23.77577,23.43549,23.459347,23.485851,23.505404,23.52066,23.522964,23.525747,23.527002,23.53462,23.544157,23.558676,23.571854,23.589773,23.605642,23.624323,23.640167,23.654274,23.666607,23.677279,23.68921,23.698889,23.712164,23.72304,23.737345,23.747093,23.759863,23.768063,23.77964,23.787554,23.796923,23.802479,23.810137,23.81578,23.822567,23.827417,23.831646,23.834152,23.836208,23.837177,23.837528,23.836922,23.83608,23.8343,23.832756,23.83017,23.828226,23.824303,23.820778,23.815447,23.811283,23.805412,23.800844,23.795214,23.790813,23.785942,23.781387,23.776098,23.770222,23.765108,23.758467,23.75236,23.744596,23.739025,23.731785,23.726856,23.7199,23.715046,23.708462,23.704056,23.697084,23.691423,23.683706,23.677313,23.669333,23.661957,23.652977,23.644232,23.63646,23.628992,23.62336,23.616564,23.610594,23.604023,23.600224,23.59591,23.59339,23.590343,23.588602,23.587326,23.587389,23.588348,23.589417,23.589182,23.586582,23.581188,23.57212,23.561275,23.544985,23.524544,23.505722,23.502863,23.488567,23.482157,23.438576,23.510801,22.686922,21.4614,19.562897,18.10569,17.253101,17.415007
18.433685,21.472414,23.563047,23.767979,23.436415,23.459446,23.4854,23.50498,23.520226,23.522413,23.525179,23.526525,23.534203,23.543741,23.558338,23.571606,23.5896,23.605509,23.624231,23.640116,23.654312,23.666721,23.677391,23.689342,23.699087,23.712461,23.723421,23.737835,23.747656,23.760572,23.768913,23.780596,23.788511,23.79782,23.803267,23.810766,23.81625,23.822798,23.827423,23.831436,23.833773,23.835688,23.836536,23.83679,23.836094,23.835192,23.833357,23.831774,23.829184,23.827248,23.823412,23.819996,23.814846,23.810835,23.805193,23.800808,23.795404,23.791164,23.786442,23.781994,23.77683,23.771048,23.765991,23.75938,23.753288,23.745539,23.739973,23.732735,23.727808,23.72089,23.716084,23.70962,23.705341,23.698563,23.693071,23.685598,23.679424,23.671726,23.66461,23.65593,23.647486,23.640015,23.632837,23.627405,23.62086,23.615108,23.608793,23.605154,23.601011,23.598585,23.595678,23.594036,23.59278,23.592754,23.593493,23.594313,23.593807,23.590998,23.585321,23.576035,23.56496,23.5487,23.528635,23.510267,23.507662,23.493307,23.486254,23.442654,23.513832,22.700708,21.490849,19.624498,18.196707,17.360462,17.51878
18.602085,21.552977,23.558218,23.75729,23.437609,23.459677,23.484755,23.504118,23.51915,23.521206,23.523888,23.525251,23.532902,23.542406,23.557041,23.570396,23.588459,23.604433,23.623274,23.63931,23.653698,23.666273,23.677008,23.689045,23.698923,23.71245,23.723495,23.738008,23.74789,23.760946,23.769428,23.7812,23.789106,23.79837,23.803747,23.811129,23.81648,23.822828,23.827257,23.831078,23.833244,23.834995,23.835695,23.83584,23.835024,23.834034,23.832102,23.830458,23.827837,23.825909,23.82215,23.818832,23.813864,23.810015,23.80462,23.800442,23.795275,23.7912,23.786636,23.78229,23.777235,23.771532,23.766525,23.75995,23.75389,23.746176,23.740627,23.733452,23.728582,23.721794,23.717104,23.710857,23.706772,23.700308,23.695086,23.687973,23.682104,23.674788,23.668028,23.65978,23.651768,23.644701,23.637903,23.632732,23.626486,23.621014,23.614973,23.61146,23.607422,23.605017,23.60217,23.60059,23.59927,23.599094,23.59957,23.600132,23.59939,23.596437,23.590576,23.581182,23.57002,23.553888,23.534164,23.51624,23.51395,23.49964,23.491909,23.44857,23.51877,22.718712,21.527237,19.7053,18.321161,17.509758,17.663841
18.708435,21.601814,23.55375,23.749683,23.438183,23.459711,23.484112,23.503138,23.517899,23.519894,23.522486,23.523788,23.531357,23.540821,23.555447,23.568836,23.586935,23.602974,23.621952,23.638159,23.652727,23.66546,23.676298,23.688444,23.698452,23.712093,23.723175,23.73772,23.747616,23.760721,23.769264,23.781063,23.788948,23.79821,23.803596,23.810966,23.816286,23.822588,23.826965,23.830729,23.83282,23.834488,23.835094,23.835182,23.834295,23.833233,23.831224,23.829533,23.826878,23.824951,23.82122,23.817942,23.813055,23.809298,23.80404,23.799973,23.794933,23.790934,23.786446,23.782139,23.777117,23.771435,23.76644,23.759884,23.753845,23.746168,23.740648,23.733553,23.72877,23.722122,23.71755,23.711487,23.70755,23.701336,23.69632,23.68948,23.683819,23.676765,23.670252,23.66232,23.654623,23.647833,23.641285,23.636284,23.630226,23.624933,23.619026,23.615543,23.611483,23.609028,23.606134,23.604534,23.603115,23.602812,23.60312,23.603567,23.602743,23.599783,23.59393,23.58459,23.573513,23.55751,23.537893,23.520134,23.518045,23.503847,23.4958,23.45286,23.522726,22.730429,21.549316,19.758232,18.406662,17.614052,17.765537
18.847233,21.664463,23.54707,23.738602,23.437618,23.458477,23.482077,23.500711,23.515207,23.517199,23.519804,23.521137,23.528759,23.538273,23.55303,23.566563,23.584822,23.601013,23.620235,23.636703,23.651533,23.6645,23.67549,23.687798,23.697973,23.71177,23.722914,23.737528,23.747465,23.76065,23.769266,23.781101,23.788967,23.798199,23.803553,23.810844,23.816074,23.82225,23.826502,23.830128,23.832085,23.83361,23.834091,23.83411,23.83316,23.83205,23.830002,23.828281,23.825651,23.823767,23.82015,23.816986,23.812313,23.808748,23.803772,23.79993,23.795164,23.79136,23.78705,23.78284,23.77789,23.772245,23.767279,23.760744,23.754719,23.74707,23.741571,23.734552,23.729845,23.723345,23.718899,23.713047,23.709293,23.7034,23.698679,23.692238,23.686918,23.680283,23.674162,23.666733,23.659527,23.653173,23.647024,23.642298,23.636543,23.631529,23.62585,23.622433,23.618378,23.615871,23.61292,23.611298,23.609713,23.609205,23.609211,23.60941,23.60834,23.605238,23.5992,23.589743,23.578558,23.562603,23.543179,23.525724,23.523846,23.509901,23.501698,23.459446,23.528519,22.748167,21.583582,19.83572,18.527872,17.758986,17.90486
18.944746,21.706848,23.541157,23.72965,23.436264,23.4567,23.479845,23.498335,23.512793,23.51485,23.517578,23.519014,23.526785,23.536415,23.551365,23.565065,23.583523,23.599886,23.619345,23.63604,23.651094,23.66425,23.675375,23.687813,23.698107,23.712011,23.723192,23.73784,23.747803,23.761024,23.769674,23.781507,23.789341,23.798527,23.803827,23.811026,23.816154,23.822205,23.826338,23.82983,23.831665,23.83306,23.83344,23.833405,23.832424,23.831293,23.829239,23.827524,23.82494,23.82311,23.819616,23.816566,23.812103,23.808725,23.804005,23.800364,23.795855,23.792236,23.788086,23.783955,23.779057,23.773428,23.768482,23.761957,23.75593,23.748293,23.742813,23.73584,23.731182,23.724777,23.720411,23.714708,23.711086,23.70543,23.70094,23.694822,23.68979,23.683504,23.677717,23.670704,23.663908,23.657915,23.652098,23.647615,23.642128,23.637354,23.63187,23.628521,23.624483,23.621952,23.618954,23.61729,23.615562,23.61488,23.61461,23.614578,23.613262,23.609978,23.603712,23.594074,23.58271,23.566692,23.54733,23.53005,23.528297,23.514608,23.506416,23.464767,23.533112,22.762424,21.611395,19.897429,18.623281,17.871124,18.010597
